ply
format ascii 1.0
comment Generated by sampleExportPLY
element vertex 1598
property float x
property float y
property float z
element face 0
property list uchar int vertex_index
end_header
0.0470265 -0.00233365 0.300955
0.0485839 -0.00247427 0.301502
0.0498023 -0.0020292 0.299985
0.0513851 -0.00221631 0.300697
0.0530846 -0.00258277 0.302043
0.0541408 -0.00192127 0.299765
0.0559382 -0.00242901 0.301611
0.0576877 -0.00284109 0.30312
0.0588696 -0.00240973 0.301655
0.060357 -0.00243361 0.301796
0.0616653 -0.00221011 0.301065
0.063522 -0.00273923 0.30299
0.0648887 -0.00259856 0.302552
0.0661152 -0.00228451 0.301502
0.0671983 -0.00180398 0.299863
0.0690755 -0.00232681 0.301768
0.0710569 -0.00295529 0.304048
0.0726479 -0.00309618 0.304605
0.0744608 -0.00349047 0.306059
0.076031 -0.00359365 0.306483
0.0775779 -0.00366772 0.306805
0.0777385 -0.00221872 0.301739
0.0791084 -0.00212631 0.30147
0.0807112 -0.00228427 0.302086
0.0825473 -0.00267968 0.303543
0.0848265 -0.00351428 0.306555
0.0868834 -0.00409784 0.308678
0.0890119 -0.00473303 0.310985
0.0891681 -0.00343395 0.30644
0.0919088 -0.00464437 0.310784
0.0926115 -0.00390233 0.30821
0.0932315 -0.00310738 0.305446
0.0943502 -0.0027912 0.304378
0.0956022 -0.00260427 0.303767
0.0959602 -0.00163387 0.300377
0.0983431 -0.00245335 0.303331
0.10116 -0.00362075 0.30752
0.102559 -0.00355738 0.307342
0.103722 -0.00329842 0.30647
0.104973 -0.00311889 0.305877
0.106394 -0.00308216 0.30579
0.108368 -0.00348778 0.307271
0.1094 -0.00313903 0.306074
0.110884 -0.0031513 0.306156
0.112813 -0.00350441 0.307446
0.113977 -0.00326759 0.30664
0.114514 -0.00256751 0.304187
0.116316 -0.00281899 0.305112
0.119667 -0.00419314 0.310022
0.12151 -0.00444648 0.31095
0.125481 -0.00620612 0.317227
0.125915 -0.0054367 0.314518
0.126659 -0.00489989 0.312632
0.126677 -0.00387618 0.309013
0.127558 -0.00346002 0.307551
0.128386 -0.00301788 0.305993
0.132598 -0.00482725 0.312435
0.133607 -0.00449496 0.311263
0.135185 -0.00453783 0.311421
0.134507 -0.00313177 0.306427
0.137299 -0.00395489 0.309353
0.139343 -0.0042896 0.31054
0.140586 -0.00411841 0.309926
0.141034 -0.0034612 0.307582
0.142946 -0.00370481 0.308436
0.145375 -0.00425182 0.310364
0.146836 -0.00421066 0.310199
0.148222 -0.00412312 0.309866
0.149842 -0.00417211 0.310014
0.150547 -0.00368991 0.308271
0.149649 -0.00230061 0.303303
0.150887 -0.00214372 0.302709
0 0 0
0 0 0
0 0 0
0 0 0
0 0 0
0 0 0
0 0 0
0 0 0
0 0 0
0 0 0
-0.156961 -0.000425063 0.291017
-0.155386 -0.000382252 0.290939
-0.155679 -0.0013492 0.294376
-0.153712 -0.00109379 0.293547
-0.153234 -0.00165396 0.295559
-0.151426 -0.00147939 0.295003
-0.145714 0.000902586 0.286741
-0.145465 0.000223972 0.289152
-0.143695 0.000408709 0.288547
-0.143709 -0.000437498 0.291537
-0.144141 -0.00154363 0.29543
-0.142086 -0.00119502 0.294242
-0.141109 -0.00148322 0.295274
-0.139293 -0.00126708 0.294541
-0.137506 -0.00106234 0.293844
-0.134466 -7.57948e-05 0.290414
-0.133735 -0.000510104 0.291942
-0.133836 -0.00147712 0.295328
-0.132405 -0.00148539 0.295362
-0.128744 -5.21615e-05 0.290359
-0.126843 0.000265397 0.289249
-0.125664 0.000114635 0.289772
-0.125079 -0.000434384 0.291684
-0.124574 -0.001049 0.293822
-0.121503 7.65398e-05 0.28988
-0.118923 0.000890531 0.287024
-0.118897 -6.08861e-05 0.29033
-0.119466 -0.00145575 0.295183
-0.119497 -0.00249705 0.298797
-0.11784 -0.00234017 0.298226
-0.116999 -0.00277666 0.299725
-0.113726 -0.00141604 0.294948
-0.113395 -0.00223442 0.297775
-0.112171 -0.00239164 0.298292
-0.110427 -0.00215128 0.29742
-0.108524 -0.00178023 0.29609
-0.106992 -0.00169248 0.295748
-0.10608 -0.00209931 0.297129
-0.104904 -0.00230213 0.297796
-0.103312 -0.00216766 0.297285
-0.0994537 -0.000131965 0.290145
-0.0977142 0.000163428 0.289072
-0.0973689 -0.000732645 0.29215
-0.0966912 -0.00136441 0.294306
-0.0947344 -0.000881188 0.292574
-0.0932393 -0.000798799 0.292239
-0.0924188 -0.00133011 0.29404
-0.0909833 -0.00130769 0.29391
-0.0888402 -0.000617906 0.291457
-0.0869014 -0.000101946 0.289608
-0.0858354 -0.000418521 0.290657
-0.0844526 -0.000432603 0.290652
-0.0819814 0.000646852 0.286842
-0.0809501 0.000290141 0.288028
-0.0809263 -0.00112782 0.292905
-0.0793764 -0.000980504 0.292336
-0.076823 0.000253484 0.287988
-0.0755312 0.000146963 0.288302
-0.0736074 0.000742674 0.286174
-0.0725002 0.000429429 0.287206
-0.0716421 -0.000186399 0.289288
-0.070137 -6.07073e-05 0.288794
-0.0679983 0.00083559 0.285623
-0.0676533 -0.000446498 0.290017
-0.0664657 -0.000721604 0.290914
-0.0643631 0.00016892 0.287765
-0.0630284 8.6613e-05 0.287994
-0.0616298 8.54433e-05 0.28794
-0.0595702 0.000993945 0.284732
-0.0588079 0.000114024 0.287727
-0.057855 -0.000534758 0.289921
-0.0560883 -1.18986e-05 0.288052
-0.0544905 0.000279844 0.286985
-0.0530581 0.000327542 0.286765
-0.0519229 -0.000100046 0.288193
-0.050619 -0.000275038 0.288745
-0.0493855 -0.000581235 0.289753
-0.0480397 -0.00071127 0.290151
-0.0459857 0.000421926 0.286176
-0.0446552 0.000283152 0.286606
-0.0433347 0.000114463 0.287141
-0.0415106 0.000929102 0.284274
-0.0402637 0.00061667 0.285308
-0.038838 0.000658825 0.285116
-0.0371382 0.00130578 0.282834
-0.0355751 0.0016886 0.281467
-0.03427 0.00148604 0.282126
-0.0331636 0.000770994 0.284557
-0.031985 0.00017748 0.286569
-0.0305261 0.000287056 0.286152
-0.0290062 0.000578374 0.285108
-0.0277597 7.98628e-05 0.286796
-0.0267128 -0.00110388 0.290851
-0.0248296 0.000360705 0.285759
-0.0230872 0.00150304 0.281782
-0.0217963 0.00109185 0.283174
-0.0206601 -5.96046e-07 0.286919
-0.0190321 0.000866815 0.283898
-0.0176576 0.000688061 0.284491
-0.0162635 0.000574648 0.28486
-0.0149861 -0.000211991 0.287555
-0.0134506 0.000418521 0.28536
-0.0120725 0.000114195 0.286393
-0.0106268 0.000251569 0.285903
-0.00923183 -2.74181e-05 0.286853
-0.00785858 -0.000643633 0.288968
-0.00638613 -0.000245534 0.287584
-0.00495071 -0.000243418 0.287569
-0.00352211 -0.000404753 0.28812
-0.00209551 -0.000873893 0.289735
-0.000646704 -0.00056982 0.288684
0.00077731 0.00124488 0.282421
0.00219214 0.00106312 0.28305
0.00360924 0.000970714 0.283372
0.00508067 4.07025e-05 0.286587
0.00665382 -0.00177979 0.292878
0.00813904 -0.00202711 0.293741
0.00950132 -0.0011116 0.290592
0.0108376 -0.000240728 0.2876
0.0123197 -0.000565715 0.288736
0.0137621 -0.000583142 0.288814
0.0151984 -0.000566572 0.288775
0.0166615 -0.000689223 0.289219
0.0180476 -0.000438668 0.288376
0.0196502 -0.00115518 0.290874
0.0211301 -0.00128532 0.29135
0.0226533 -0.00156306 0.292337
0.0239975 -0.00118095 0.291046
0.0253998 -0.00103707 0.29058
0.0267267 -0.000674218 0.289359
0.0280265 -0.000270151 0.287997
0.0294545 -0.000270128 0.288032
0.0307597 5.93066e-05 0.286931
0.0326267 -0.00109176 0.290947
0.0342871 -0.001637 0.292872
0.0353316 -0.000679977 0.289605
0.0367092 -0.00055857 0.289228
0.0384543 -0.00125399 0.291676
0.0398906 -0.00124837 0.291702
0.0413484 -0.00128881 0.291889
0.0428403 -0.00139575 0.292306
0.0444179 -0.00166115 0.293273
0.0456388 -0.0012524 0.291908
0.0473818 -0.00180564 0.293874
0.0491413 -0.00235656 0.295834
0.0499694 -0.00130461 0.292244
0.0508988 -0.000479192 0.289438
0.052899 -0.00141055 0.292718
0.0549001 -0.00229557 0.295839
0.0566073 -0.00269146 0.297267
0.0582297 -0.00294359 0.298198
0.0595996 -0.00282099 0.29783
0.0608837 -0.00258477 0.297069
0.0616651 -0.00166997 0.293954
0.0642004 -0.00315389 0.299159
0.0651455 -0.0024845 0.296896
0.0663867 -0.00222585 0.296057
0.0677248 -0.00210105 0.295683
0.0687669 -0.00161792 0.294064
0.0698196 -0.00116831 0.292561
0.0721933 -0.0022997 0.296549
0.0735828 -0.00224676 0.296424
0.0744951 -0.00165377 0.294422
0.0773376 -0.00323825 0.299987
0.0783211 -0.00272837 0.298273
0.0789021 -0.00180464 0.29512
0.0808212 -0.0023283 0.296998
0.0828217 -0.00291889 0.299109
0.0839949 -0.00264552 0.298215
0.0849141 -0.00212681 0.296466
0.086564 -0.00234686 0.297287
0.0895307 -0.00383858 0.302533
0.0901199 -0.00301157 0.299709
0.0901969 -0.00172924 0.295298
0.0928474 -0.00286929 0.299319
0.0943469 -0.00292535 0.299566
0.0951931 -0.00239323 0.297762
0.0961451 -0.00197044 0.296338
0.098212 -0.00253199 0.298343
0.101004 -0.00370032 0.302461
0.10237 -0.00362725 0.302252
0.102993 -0.00293556 0.299885
0.104415 -0.00292099 0.299877
0.105479 -0.0026155 0.298853
0.107711 -0.00325484 0.301122
0.110161 -0.00404847 0.303929
0.111421 -0.00389156 0.303418
0.110941 -0.00239812 0.298243
0.112041 -0.00214349 0.297387
0.114031 -0.00256412 0.298885
0.116749 -0.0035126 0.302224
0.118978 -0.00407884 0.304228
0.118601 -0.00274498 0.299597
0.122045 -0.00417323 0.304605
0.125491 -0.00556866 0.309497
0.125231 -0.0043425 0.305235
0.124949 -0.00312895 0.301013
0.125539 -0.00253671 0.298959
0.128023 -0.00323413 0.301404
0.132031 -0.00493006 0.307334
0.131758 -0.0037642 0.303268
0.132584 -0.0033398 0.301789
0.134737 -0.00377876 0.303321
0.135676 -0.00343225 0.302107
0.138293 -0.0041499 0.304606
0.139405 -0.00391099 0.303762
0.141134 -0.0040565 0.304257
0.143885 -0.0048216 0.306912
0.145436 -0.00484245 0.306964
0.146668 -0.00467088 0.306342
0.147714 -0.00438957 0.305332
0.14646 -0.0027645 0.299629
0.146439 -0.00188454 0.296523
0.145745 -0.000633292 0.292119
0 0 0
0 0 0
0 0 0
0 0 0
0 0 0
0 0 0
0 0 0
0 0 0
0 0 0
0 0 0
-0.142245 0.00614353 0.263469
-0.152864 -0.000395916 0.285935
-0.148427 0.00124329 0.280387
-0.146619 0.00145338 0.279729
-0.146639 0.000642993 0.282564
-0.14532 0.000579044 0.282837
-0.143467 0.000822894 0.28205
-0.141765 0.00098706 0.281532
-0.140817 0.000715755 0.282504
-0.138612 0.00118387 0.280935
-0.139763 -0.000339374 0.286194
-0.140121 -0.0014134 0.289909
-0.136738 -0.000228263 0.285869
-0.136271 -0.000811167 0.287892
-0.134991 -0.000898711 0.288212
-0.132776 -0.000398323 0.28651
-0.131086 -0.000219002 0.285908
-0.131926 -0.00165917 0.29086
-0.129494 -0.00100435 0.288619
-0.126458 6.33225e-05 0.284958
-0.12487 0.000194661 0.284508
-0.123571 0.000136621 0.284705
-0.122266 8.29399e-05 0.284884
-0.121287 -0.000195108 0.28583
-0.120983 -0.000946678 0.2884
-0.117944 0.000207022 0.284427
-0.11612 0.000525855 0.283318
-0.117761 -0.00164036 0.290734
-0.117727 -0.00263771 0.294136
-0.116643 -0.00288466 0.294961
-0.112609 -0.000936061 0.288251
-0.110393 -0.000310771 0.286079
-0.109043 -0.000331782 0.286123
-0.107355 -9.01297e-05 0.285264
-0.109204 -0.00261842 0.293902
-0.107717 -0.00255907 0.293664
-0.105019 -0.00152259 0.290074
-0.102444 -0.00055787 0.286729
-0.10249 -0.00173579 0.290728
-0.100469 -0.00121126 0.288889
-0.0973361 0.000273958 0.283758
-0.0957632 0.000455528 0.283093
-0.0959055 -0.000858702 0.287551
-0.0955879 -0.00180279 0.290738
-0.0939436 -0.00157918 0.289925
-0.0918056 -0.000897251 0.287541
-0.0905014 -0.000968836 0.287737
-0.0883196 -0.000215128 0.285106
-0.0860219 0.000673272 0.282015
-0.0852017 0.000151716 0.283748
-0.0840217 -3.1136e-05 0.284321
-0.0826275 -4.95464e-06 0.284178
-0.080814 0.000450417 0.282567
-0.0797792 0.000111192 0.283672
-0.0790961 -0.000612602 0.286091
-0.0775093 -0.000389367 0.285272
-0.0757101 7.42301e-05 0.283631
-0.07341 0.00111357 0.280024
-0.0724949 0.000615686 0.281668
-0.0720205 -0.000412993 0.285124
-0.0711497 -0.00101404 0.287118
-0.0683237 0.000717156 0.28115
-0.0672727 0.000334576 0.282399
-0.0664333 -0.000330627 0.284611
-0.064948 -0.000196926 0.284097
-0.0637264 -0.000403821 0.284745
-0.0626318 -0.000791281 0.286008
-0.0603933 0.000369214 0.281994
-0.0587242 0.000784606 0.280521
-0.0572648 0.000917464 0.280012
-0.0555706 0.00140074 0.27831
-0.0556866 -0.000820555 0.285822
-0.0539171 -0.000243604 0.283801
-0.0520864 0.000459433 0.281352
-0.0514725 -0.000783592 0.28553
-0.0499883 -0.000639841 0.284986
-0.0475637 0.00113091 0.278907
-0.0458698 0.00170849 0.27689
-0.0451657 0.000510097 0.280917
-0.0442204 -0.000310622 0.283658
-0.0422943 0.000723109 0.280093
-0.0409525 0.00064873 0.280298
-0.0395867 0.000616975 0.280359
-0.0380905 0.000862658 0.279478
-0.0365557 0.00121138 0.278249
-0.0350967 0.00140895 0.277534
-0.0338301 0.00115445 0.278357
-0.0326444 0.000672013 0.279955
-0.0312092 0.000802629 0.279472
-0.0299649 0.000416391 0.280745
-0.0289109 -0.000560112 0.284024
-0.0272084 0.000333287 0.280955
-0.0257439 0.000558108 0.280158
-0.0241213 0.00134194 0.277465
-0.0227811 0.00120329 0.277905
-0.0214722 0.00092487 0.278821
-0.0200811 0.000941604 0.278737
-0.0186544 0.00111472 0.278124
-0.0173057 0.000942841 0.278683
-0.016024 0.000392981 0.280526
-0.0145544 0.00079757 0.279133
-0.0133505 -0.000376195 0.283095
-0.0119101 -0.000176832 0.282402
-0.0105205 -0.000329256 0.282904
-0.00907997 -6.60121e-05 0.281997
-0.00763334 0.000357263 0.28055
-0.00622075 0.00051593 0.280002
-0.00484108 0.000199683 0.281067
-0.0034705 -0.000597805 0.283765
-0.00204984 -0.000459239 0.283291
-0.000623245 0.00106787 0.278111
0.000764041 0.00126753 0.277434
0.00216319 0.000757858 0.279164
0.00356311 0.000628471 0.279606
0.00497459 0.000378199 0.28046
0.00641247 -0.000106543 0.282112
0.00783863 -0.000293806 0.282756
0.00912622 0.000823043 0.27898
0.0106203 2.70307e-05 0.281692
0.0120475 -0.000122197 0.282213
0.0134884 -0.000328086 0.282928
0.0149243 -0.000468709 0.283424
0.0163349 -0.000457227 0.283406
0.0177189 -0.000325069 0.28298
0.0191167 -0.000274807 0.282833
0.0206835 -0.000919633 0.285047
0.022183 -0.00122836 0.286122
0.0234448 -0.000652626 0.284198
0.0249143 -0.000844181 0.284878
0.0263435 -0.000889018 0.285063
0.0277374 -0.000824347 0.284878
0.0291249 -0.000749931 0.284661
0.0303826 -0.000327833 0.283264
0.0314492 0.000556573 0.280299
0.0336321 -0.00144138 0.287125
0.034716 -0.000629432 0.284408
0.0363035 -0.00104944 0.285877
0.0378693 -0.0013915 0.287084
0.0395034 -0.00185777 0.288714
0.0408334 -0.00166212 0.288096
0.0421372 -0.00142915 0.287351
0.0435752 -0.00147332 0.28755
0.0450776 -0.00163743 0.288158
0.0465513 -0.00174106 0.288562
0.0479532 -0.00171325 0.288519
0.0489064 -0.000917822 0.285865
0.0500136 -0.000425503 0.284242
0.0517645 -0.00100708 0.286275
0.0537662 -0.00195626 0.289562
0.0554627 -0.00238775 0.291087
0.0562683 -0.00146034 0.287984
0.0577334 -0.00154641 0.288334
0.059402 -0.00192082 0.289667
0.0605676 -0.0015761 0.288549
0.0618882 -0.00145992 0.288211
0.0652066 -0.00401873 0.296994
0.0650513 -0.0019282 0.289924
0.0663439 -0.00177945 0.289475
0.0675401 -0.00151714 0.288639
0.0687062 -0.00122942 0.287715
0.0704543 -0.00165419 0.289223
0.0712613 -0.000953458 0.286889
0.0724346 -0.000704028 0.286095
0.0762771 -0.00349437 0.295682
0.0760345 -0.00163122 0.289377
0.0779838 -0.00223409 0.291494
0.0795083 -0.00235976 0.29198
0.0819759 -0.0034775 0.295858
0.0798754 0.000183664 0.283399
0.0836004 -0.00222323 0.291682
0.0850133 -0.00223058 0.291763
0.0865863 -0.00239626 0.292384
0.0867929 -0.00122947 0.288445
0.0893921 -0.00238732 0.292459
0.0900962 -0.00172558 0.290246
0.0925717 -0.00272616 0.293722
0.0940121 -0.00275174 0.293859
0.0949811 -0.00235254 0.292541
0.0963229 -0.00229534 0.292393
0.0985 -0.00296953 0.294748
0.0997904 -0.00286072 0.29442
0.100968 -0.00265901 0.293773
0.102566 -0.00281503 0.29435
0.10463 -0.00335047 0.296226
0.106363 -0.00360256 0.297129
0.107966 -0.00374204 0.297645
0.107206 -0.0020027 0.291718
0.108793 -0.00214585 0.292243
0.110366 -0.00227403 0.292714
0.112071 -0.00249942 0.293517
0.114981 -0.00362708 0.297413
0.115563 -0.00299183 0.295261
0.116249 -0.00244834 0.29342
0.117827 -0.00256509 0.293842
0.11974 -0.00291859 0.295075
0.121047 -0.00283243 0.294796
0.122436 -0.00280488 0.294717
0.123653 -0.00265731 0.294222
0.124832 -0.00248641 0.293646
0.128397 -0.00393442 0.298622
0.130532 -0.00439063 0.300191
0.131059 -0.00376991 0.298063
0.132667 -0.00386971 0.298404
0.135751 -0.0049221 0.30201
0.136058 -0.00416958 0.29942
0.137616 -0.00422548 0.299601
0.139336 -0.00437909 0.300113
0.141524 -0.00481898 0.301605
0.143413 -0.00506395 0.302424
0.143744 -0.00435317 0.29996
0.141328 -0.00200179 0.291865
0.140137 -0.0004256 0.286427
0.141165 -0.000188202 0.285578
0.142127 8.5175e-05 0.284602
0 0 0
0 0 0
0 0 0
0 0 0
0 0 0
0 0 0
0 0 0
0 0 0
0 0 0
0 0 0
-0.156215 -0.00279761 0.289054
-0.149029 0.000365421 0.278482
-0.145486 0.0015511 0.274559
-0.142794 0.00228077 0.272165
-0.141687 0.00212212 0.272758
-0.141504 0.00142997 0.275145
-0.140772 0.00104695 0.276486
-0.139712 0.000851408 0.277192
-0.136849 0.00172617 0.274285
-0.135629 0.00163421 0.274634
-0.136351 0.000365011 0.278948
-0.136556 -0.000611469 0.282272
-0.13264 0.000945568 0.277048
-0.131289 0.000932418 0.277116
-0.131897 -0.000317395 0.281353
-0.130433 -0.000268027 0.281203
-0.129669 -0.000667959 0.282566
-0.127766 -0.000331827 0.281443
-0.126346 -0.000304811 0.281359
-0.124199 0.000209719 0.279628
-0.12253 0.000414573 0.278938
-0.121221 0.000380211 0.279053
-0.119555 0.00059215 0.278333
-0.118294 0.000527978 0.278543
-0.118312 -0.000439614 0.281798
-0.117056 -0.000518918 0.282054
-0.115003 -2.224e-05 0.280364
-0.114432 -0.000597283 0.282287
-0.115581 -0.00245752 0.288543
-0.113164 -0.00169079 0.285935
-0.109811 -0.000194639 0.280865
-0.107532 0.000515319 0.278445
-0.106495 0.000278018 0.279218
-0.106661 -0.000912167 0.283201
-0.107232 -0.00245525 0.288372
-0.105497 -0.00217484 0.287392
-0.102877 -0.00116149 0.283941
-0.100408 -0.00024657 0.280821
-0.0995598 -0.000668727 0.282205
-0.0985416 -0.000957526 0.283138
-0.0962654 -0.000166215 0.280431
-0.0940426 0.000600956 0.277804
-0.0938268 -0.000395201 0.281115
-0.0947941 -0.00248835 0.288117
-0.0912257 -0.000488371 0.281337
-0.0877779 0.00145963 0.274732
-0.0865721 0.00135054 0.275052
-0.0858008 0.000821412 0.276783
-0.0847502 0.000547409 0.277655
-0.0836025 0.000360504 0.278232
-0.0826374 -1.63689e-05 0.279447
-0.0809988 0.000282519 0.278389
-0.079966 -3.86462e-05 0.279415
-0.0788039 -0.000234485 0.280019
-0.0774851 -0.000269175 0.28008
-0.0768286 -0.00103065 0.282582
-0.0749512 -0.000459403 0.280607
-0.0732337 -4.91813e-05 0.279172
-0.0724132 -0.000661664 0.281172
-0.070704 -0.000250801 0.279735
-0.0685549 0.000703767 0.276474
-0.0674041 0.000472128 0.277194
-0.0658356 0.000752613 0.276196
-0.0648078 0.000353508 0.277477
-0.0633308 0.000522055 0.276855
-0.0628678 -0.000653706 0.280739
-0.0616119 -0.000803262 0.281183
-0.058952 0.000994451 0.2751
-0.0581808 0.000183299 0.277762
-0.0562422 0.00103535 0.274851
-0.0553213 0.000406832 0.276901
-0.055122 -0.00135995 0.282761
-0.0524772 0.000623673 0.276064
-0.0511483 0.000588283 0.276128
-0.0490188 0.00187583 0.271765
-0.0483888 0.000680193 0.275714
-0.0466408 0.00137299 0.273344
-0.0450845 0.00175942 0.272
-0.0436756 0.00189389 0.2715
-0.0423135 0.00194532 0.271279
-0.0416258 0.000662908 0.275518
-0.040157 0.000891291 0.274707
-0.0388017 0.000893213 0.274654
-0.0376196 0.000513189 0.275878
-0.0362089 0.000623524 0.275464
-0.0346955 0.000983402 0.274219
-0.0333103 0.0010547 0.273939
-0.0319752 0.00100159 0.274075
-0.0306838 0.000824519 0.274627
-0.0294187 0.000555232 0.275488
-0.0282112 8.80361e-05 0.27701
-0.026576 0.000893503 0.274287
-0.02512 0.00119942 0.273232
-0.0237334 0.00129921 0.272867
-0.022437 0.00107879 0.273572
-0.0212894 0.000248812 0.276312
-0.0198739 0.000416182 0.275726
-0.0183778 0.000966065 0.273866
-0.0169267 0.00138439 0.272447
-0.0156108 0.00116388 0.27316
-0.0144416 5.51566e-05 0.276837
-0.0129143 0.00098592 0.273714
-0.0114418 0.00174429 0.271169
-0.0103473 -0.00034371 0.278115
-0.00898113 -0.00055211 0.278796
-0.00758131 -0.000468902 0.278507
-0.00612507 0.000410222 0.275567
-0.00475266 0.000336163 0.275806
-0.00341348 -0.000616625 0.278976
-0.00201675 -0.000504248 0.278597
-0.000619157 0.000216618 0.276192
0.000761717 0.000146255 0.276427
0.00215165 -0.000184529 0.277531
0.00354441 -0.000323944 0.277999
0.00490082 0.000228323 0.276164
0.00631618 -0.00024163 0.277738
0.00766394 0.00018698 0.276319
0.00903462 0.000272863 0.276043
0.0104239 0.000185937 0.276346
0.0118875 -0.000404567 0.27833
0.013323 -0.000696748 0.279321
0.0147167 -0.000697702 0.279343
0.0160837 -0.000562005 0.278911
0.017465 -0.000518389 0.278787
0.0188823 -0.000642791 0.279226
0.0202935 -0.000726983 0.279533
0.0216213 -0.000480272 0.278738
0.0229645 -0.000320986 0.278235
0.0243832 -0.000440903 0.278666
0.025839 -0.000669979 0.279463
0.027347 -0.00103837 0.280726
0.0288351 -0.00131483 0.281684
0.0300769 -0.000879847 0.28027
0.0308738 0.000701547 0.275029
0.0322605 0.000640251 0.275272
0.0339275 -0.000105329 0.277803
0.0355237 -0.000627741 0.27959
0.0369154 -0.000649095 0.279705
0.0391408 -0.00249359 0.285912
0.0403111 -0.00198466 0.284259
0.041453 -0.00145406 0.282533
0.043041 -0.00183965 0.283871
0.0446063 -0.00215945 0.28499
0.0460049 -0.00215259 0.285018
0.0469874 -0.00139955 0.282551
0.0477458 -0.000299871 0.278925
0.0493806 -0.000750914 0.280487
0.0510875 -0.0012981 0.282372
0.052698 -0.00166291 0.283647
0.0536929 -0.00104578 0.281637
0.0553218 -0.00142927 0.282976
0.0568062 -0.00158014 0.283538
0.0582143 -0.00161415 0.283708
0.0596573 -0.00169736 0.284045
0.0607709 -0.0013205 0.282839
0.0619138 -0.00100115 0.281827
0.0627292 -0.000261709 0.279405
0.0645371 -0.000845395 0.28142
0.0660765 -0.00106382 0.28221
0.0674338 -0.00104713 0.282212
0.0688888 -0.00115155 0.28262
0.0702775 -0.00117312 0.28275
0.0715566 -0.0010659 0.282448
0.0731135 -0.00128393 0.283237
0.0763847 -0.00343634 0.290522
0.0765171 -0.00202069 0.285826
0.0787062 -0.0029027 0.288846
0.0809261 -0.0037876 0.291876
0.0812113 -0.00260147 0.287947
0.0816419 -0.00160655 0.284658
0.0835009 -0.00210216 0.286379
0.0851356 -0.00235678 0.287289
0.0874433 -0.00326826 0.290408
0.0888156 -0.00324196 0.290372
0.0895725 -0.00262791 0.288358
0.0898095 -0.00154276 0.284757
0.0909181 -0.00129925 0.283987
0.0937908 -0.00267609 0.288669
0.0944607 -0.00202781 0.286534
0.0947985 -0.00110324 0.283466
0.0972901 -0.00209034 0.286834
0.0995776 -0.00287339 0.289515
0.100918 -0.00282813 0.289404
0.10155 -0.00218951 0.287293
0.104467 -0.00345986 0.291612
0.103508 -0.0015284 0.28514
0.10572 -0.00220454 0.287453
0.107385 -0.00242741 0.288238
0.109067 -0.00265742 0.289045
0.110837 -0.00294946 0.290059
0.111796 -0.00261107 0.288946
0.112561 -0.00213432 0.287363
0.114314 -0.00240653 0.288305
0.116117 -0.002708 0.289342
0.118067 -0.00310956 0.290716
0.119473 -0.00310759 0.290725
0.119384 -0.00203869 0.287134
0.12096 -0.00216682 0.287577
0.123018 -0.00262608 0.289135
0.124701 -0.0028157 0.289781
0.127095 -0.00348419 0.292039
0.129306 -0.00401326 0.293824
0.129017 -0.00286326 0.289942
0.129346 -0.00214459 0.287512
0.131607 -0.0026984 0.289371
0.136095 -0.00467465 0.296026
0.132874 -0.00168944 0.285941
0.13596 -0.00274633 0.289487
0.138856 -0.00366037 0.292547
0.138845 -0.0027564 0.289472
0.139429 -0.00223317 0.287678
0.139987 -0.00170252 0.285855
0.140472 -0.00113664 0.283911
0.14209 -0.00125171 0.284258
0 0 0
0 0 0
0 0 0
0 0 0
0 0 0
0 0 0
0 0 0
0 0 0
0 0 0
0 0 0
-0.156502 -0.00434149 0.289289
-0.147501 -0.000105485 0.275349
-0.143338 0.00146066 0.270236
-0.140937 0.00204742 0.268358
-0.139951 0.00182634 0.269151
-0.139618 0.00122083 0.271213
-0.138221 0.00123624 0.271215
-0.137525 0.000834629 0.272593
-0.134607 0.00177021 0.269536
-0.133507 0.00161768 0.270082
-0.133467 0.000810258 0.272795
-0.133001 0.000254363 0.27467
-0.130269 0.00111447 0.271847
-0.128662 0.00127948 0.271324
-0.127602 0.0010983 0.271947
-0.126617 0.000866652 0.272733
-0.126043 0.000361577 0.274423
-0.126534 -0.000858627 0.278483
-0.122355 0.00102818 0.272232
-0.120039 0.00169418 0.270028
-0.120245 0.000648297 0.2735
-0.11875 0.00075911 0.273132
-0.11637 0.00149419 0.27069
-0.116273 0.00062912 0.273555
-0.115705 8.21948e-05 0.275361
-0.113682 0.000579894 0.273698
-0.1133 -0.000114016 0.275987
-0.110585 0.000909962 0.272574
-0.110455 1.56164e-05 0.275523
-0.109922 -0.000593185 0.277521
-0.107978 -0.000128672 0.275958
-0.106987 -0.000395499 0.276818
-0.105885 -0.000579685 0.277402
-0.105192 -0.00109592 0.279084
-0.102767 -0.000221074 0.276153
-0.103091 -0.00158034 0.280626
-0.10034 -0.000415899 0.276731
-0.0989393 -0.00035844 0.276505
-0.0968683 0.000273913 0.274372
-0.0965672 -0.000609845 0.277261
-0.0951724 -0.000556901 0.277044
-0.092772 0.000394136 0.273852
-0.0906436 0.00112683 0.271383
-0.0894256 0.00104589 0.271607
-0.0888491 0.000365391 0.273814
-0.0876318 0.000270039 0.274082
-0.0843327 0.00216915 0.26775
-0.0838818 0.00135192 0.270406
-0.0833939 0.00054545 0.273024
-0.0829123 -0.000293486 0.275748
-0.0819294 -0.000647612 0.276867
-0.0805031 -0.000553042 0.276501
-0.0785443 0.000106864 0.274265
-0.0771876 0.000141971 0.274095
-0.0744206 0.00171972 0.268828
-0.0742899 0.000419632 0.273068
-0.0726517 0.000779726 0.271823
-0.0722239 -0.000243977 0.275148
-0.0717589 -0.00126309 0.278455
-0.0682403 0.00133605 0.269819
-0.0666682 0.00165862 0.268698
-0.0657319 0.00120128 0.270151
-0.0646124 0.000957265 0.270899
-0.0630315 0.00130101 0.269709
-0.0618487 0.00113077 0.270214
-0.0610092 0.000487387 0.272278
-0.0604628 -0.000591092 0.275775
-0.0578985 0.00113624 0.270026
-0.0566128 0.00109094 0.270119
-0.0554712 0.000828668 0.270928
-0.0538378 0.00129957 0.269321
-0.0525675 0.00122728 0.269505
-0.0511089 0.00145059 0.268715
-0.0493344 0.00220245 0.266187
-0.0490823 0.000429921 0.271967
-0.0473991 0.00103402 0.269926
-0.0459822 0.00119739 0.269337
-0.0444714 0.00154097 0.268156
-0.0429665 0.00189263 0.26695
-0.04196 0.00129361 0.26887
-0.0408718 0.000818215 0.270384
-0.0394757 0.000949487 0.269905
-0.0382239 0.00077758 0.270423
-0.0371277 0.00024417 0.27213
-0.0356765 0.000490785 0.271275
-0.0340118 0.00126823 0.268679
-0.0325797 0.00152481 0.267795
-0.0313122 0.00137152 0.268257
-0.0300625 0.00115416 0.268932
-0.0289473 0.000530921 0.270939
-0.0275475 0.000696287 0.27036
-0.0259588 0.00147013 0.267786
-0.024638 0.00143745 0.267859
-0.0233311 0.00135072 0.268112
-0.0220819 0.00103635 0.269113
-0.0209601 0.000175409 0.271907
-0.0196523 -2.02581e-05 0.272521
-0.0180955 0.000883445 0.269532
-0.016624 0.00151157 0.267449
-0.015317 0.00136937 0.267893
-0.0140776 0.000802092 0.269732
-0.0127922 0.000409402 0.271001
-0.0114074 0.000639871 0.270228
-0.010148 -9.78261e-05 0.272631
-0.00869306 0.000783332 0.26973
-0.00737167 0.000489227 0.270682
-0.00605589 -1.69128e-05 0.272331
-0.00465596 0.00066977 0.270073
-0.00334151 -0.000217177 0.272974
-0.0019952 -0.000990383 0.275503
-0.000612088 -0.000211976 0.27295
0.000750582 8.47876e-06 0.272228
0.00215391 -0.00165543 0.277682
0.00347182 2.71797e-05 0.272172
0.0048697 -0.000613712 0.274277
0.00618213 0.000171266 0.271712
0.0075364 0.000211552 0.27159
0.00888335 0.000305951 0.271292
0.0102898 -0.000107542 0.27266
0.011686 -0.000353113 0.27348
0.0130815 -0.000545524 0.274127
0.0145169 -0.000933483 0.275417
0.015908 -0.00102267 0.27573
0.0170294 0.000212692 0.271702
0.0185648 -0.000602081 0.274398
0.0200363 -0.00103897 0.275856
0.0213058 -0.000627995 0.274536
0.0225845 -0.000302501 0.273497
0.0240289 -0.000593036 0.274481
0.0254539 -0.000790492 0.275161
0.0267113 -0.000445679 0.274064
0.0277584 0.000489391 0.27103
0.0290951 0.000514463 0.270985
0.0305967 8.79988e-05 0.272422
0.0319876 -1.66968e-05 0.272805
0.033546 -0.000532255 0.274539
0.0350442 -0.000865147 0.275674
0.0365279 -0.00114159 0.276626
0.0379176 -0.00119081 0.276832
0.0398476 -0.00239746 0.280843
0.0407253 -0.00134321 0.277427
0.0418124 -0.000779152 0.275621
0.0441435 -0.00266879 0.281882
0.0445957 -0.000906177 0.276138
0.0455026 -8.04439e-05 0.273474
0.0467458 9.95025e-05 0.272934
0.0486573 -0.000885539 0.276226
0.0506005 -0.00187167 0.279524
0.0508779 -8.42139e-05 0.273697
0.052612 -0.000710033 0.275811
0.0544965 -0.0015393 0.278596
0.0563664 -0.00230735 0.281181
0.0571395 -0.00141803 0.27831
0.0581233 -0.000875495 0.276579
0.0594533 -0.000847585 0.276544
0.0610445 -0.00118255 0.277705
0.0628674 -0.00181691 0.279854
0.0640048 -0.0015192 0.27893
0.0651688 -0.00126927 0.278164
0.0665842 -0.00134934 0.278486
0.0682094 -0.00168773 0.27966
0.0695274 -0.00163938 0.279558
0.0708018 -0.00154148 0.279293
0.0724859 -0.00192858 0.280628
0.0742238 -0.00236394 0.282123
0.0748633 -0.00154267 0.279468
0.0761192 -0.00143544 0.27917
0.0779476 -0.00195705 0.280949
0.0795661 -0.00223625 0.281927
0.0808559 -0.00215989 0.28173
0.0822429 -0.00218724 0.281875
0.0835283 -0.00211046 0.281675
0.0844507 -0.00167201 0.280278
0.0859315 -0.00179926 0.28075
0.088576 -0.00305434 0.284953
0.0879932 -0.00118065 0.278804
0.0895544 -0.0013856 0.27953
0.0923299 -0.00271295 0.283971
0.09287 -0.00195451 0.281507
0.0942046 -0.00193489 0.281487
0.0960328 -0.00235485 0.282921
0.0972376 -0.0022159 0.282504
0.0984512 -0.00208814 0.282122
0.0996914 -0.00198632 0.281824
0.101106 -0.00203332 0.282017
0.103401 -0.00281033 0.284628
0.10414 -0.00229146 0.282943
0.105883 -0.00259721 0.283989
0.107512 -0.00280326 0.284703
0.108835 -0.00276245 0.284597
0.110616 -0.00307833 0.285671
0.11069 -0.00207266 0.282361
0.112297 -0.00225554 0.28299
0.114632 -0.00298005 0.285413
0.116164 -0.00309046 0.285797
0.117379 -0.00296414 0.285394
0.118364 -0.00267389 0.284444
0.119688 -0.0026321 0.284316
0.121684 -0.0030653 0.285761
0.122996 -0.00300858 0.285577
0.124823 -0.00330836 0.286574
0.124894 -0.00239807 0.283554
0.127326 -0.0031045 0.285893
0.128537 -0.00297671 0.285463
0.128066 -0.00173565 0.281336
0.129129 -0.00152522 0.280625
0.12894 -0.000505209 0.277226
0.131517 -0.00127956 0.279774
0.135466 -0.00290662 0.285146
0.137284 -0.00315925 0.285956
0.138436 -0.00299013 0.285364
0.138895 -0.00239649 0.283361
0.140819 -0.00270469 0.284344
0.141685 -0.00236594 0.283178
0 0 0
0 0 0
0 0 0
0 0 0
0 0 0
0 0 0
0 0 0
0 0 0
0 0 0
0 0 0
-0.141172 0.00297196 0.260684
-0.142711 0.00132041 0.266136
-0.140495 0.00181178 0.264608
-0.140555 0.000986181 0.267364
-0.139568 0.000764333 0.26815
-0.137968 0.000906773 0.267744
-0.135907 0.00133114 0.266415
-0.134944 0.00109971 0.267219
-0.132998 0.0014691 0.26606
-0.131669 0.00146598 0.266112
-0.130407 0.00142303 0.266289
-0.130048 0.000809595 0.268323
-0.129266 0.000456817 0.269504
-0.127593 0.000673451 0.268824
-0.12584 0.000948578 0.267949
-0.124556 0.000922523 0.268053
-0.123961 0.000438094 0.26965
-0.12281 0.000319697 0.270049
-0.12072 0.000840314 0.26836
-0.119775 0.00058461 0.2692
-0.117921 0.000958554 0.267984
-0.116741 0.000866957 0.268283
-0.115371 0.000910848 0.268138
-0.114674 0.000471532 0.269567
-0.113935 5.38975e-05 0.270922
-0.113076 -0.000283912 0.272014
-0.110385 0.000738539 0.268665
-0.109754 0.000230633 0.270307
-0.108667 6.05136e-05 0.270845
-0.108937 -0.00116287 0.274816
-0.107697 -0.00123301 0.275022
-0.105421 -0.000482433 0.27255
-0.104902 -0.00112287 0.274612
-0.102937 -0.000603452 0.27289
-0.101856 -0.000798449 0.273496
-0.09973 -0.000125483 0.271269
-0.098783 -0.000430994 0.272232
-0.0962926 0.000578158 0.268907
-0.0949586 0.000610925 0.268763
-0.0934054 0.000837922 0.267985
-0.0926404 0.000367865 0.269477
-0.0911168 0.000571705 0.268772
-0.0882121 0.00205023 0.263914
-0.0880748 0.000992872 0.267314
-0.0875961 0.000227101 0.269762
-0.0866609 -0.000123389 0.270856
-0.085139 8.72537e-05 0.270123
-0.0826746 0.00123753 0.266331
-0.0824611 0.000160381 0.269787
-0.0823125 -0.00101775 0.273568
-0.0819238 -0.00198522 0.276662
-0.0790863 -0.000400051 0.271454
-0.0765877 0.000874445 0.267258
-0.0747287 0.00149398 0.265191
-0.0739024 0.000987522 0.266783
-0.0724051 0.00122122 0.265969
-0.0714341 0.000856929 0.267098
-0.0699364 0.00109629 0.266265
-0.0685473 0.00121409 0.265827
-0.0669371 0.00160505 0.264502
-0.0654243 0.00188959 0.263523
-0.0643941 0.00157387 0.264492
-0.0633232 0.00129715 0.265334
-0.0617309 0.00169536 0.263986
-0.060553 0.00155166 0.264396
-0.0593022 0.00150103 0.264504
-0.0575417 0.00216385 0.2623
-0.0567527 0.00145865 0.26453
-0.0560184 0.000638895 0.26713
-0.0544199 0.00108111 0.265642
-0.0529505 0.00134446 0.264734
-0.0519185 0.000927694 0.266029
-0.050682 0.000820085 0.266323
-0.0494125 0.000760272 0.266463
-0.0481055 0.000760294 0.26641
-0.0469587 0.00047677 0.267274
-0.04544 0.000848711 0.266019
-0.0440127 0.0010708 0.26525
-0.0424985 0.00147177 0.263903
-0.041085 0.00169684 0.263126
-0.0400056 0.00125162 0.264517
-0.0387232 0.0012041 0.264624
-0.0375988 0.000805467 0.265866
-0.0362585 0.000865996 0.265625
-0.0348308 0.00113492 0.264712
-0.0333853 0.00146631 0.263599
-0.0320912 0.00143778 0.263649
-0.0307349 0.00156979 0.263183
-0.0295501 0.00123668 0.264219
-0.0283858 0.000811078 0.265555
-0.0269987 0.00101924 0.264847
-0.0255804 0.00134643 0.263756
-0.0243539 0.00106066 0.264645
-0.0230623 0.000972353 0.264898
-0.021632 0.00139458 0.263505
-0.0201047 0.00225904 0.260688
-0.019004 0.00140713 0.263409
-0.0177682 0.00105044 0.264534
-0.0163429 0.0015792 0.262805
-0.0149773 0.00187418 0.261832
-0.0138244 0.000959493 0.264761
-0.0125476 0.000663064 0.265698
-0.0112338 0.00056529 0.265996
-0.00977267 0.0016667 0.262431
-0.00847203 0.00156239 0.262754
-0.0072223 0.000837296 0.265079
-0.00593421 0.000318542 0.266742
-0.00458829 0.000536345 0.266032
-0.00324957 0.000746317 0.26535
-0.00193811 7.46027e-05 0.26751
-0.000594154 0.000892691 0.264872
0.000722262 0.00184396 0.261806
0.00203791 0.00159916 0.262597
0.00336579 0.00124782 0.263732
0.00472981 0.000461332 0.266272
0.00607022 0.000340775 0.266668
0.00739517 0.000434518 0.266375
0.00872662 0.000436336 0.266381
0.0100307 0.000660554 0.265671
0.0113207 0.000932477 0.264809
0.0127416 0.000295781 0.266878
0.014194 -0.000407934 0.269165
0.0157923 -0.00177631 0.273597
0.0167027 0.000473782 0.266364
0.0180285 0.000486881 0.266346
0.0196743 -0.000869036 0.270744
0.0208866 -0.000321567 0.269005
0.0220568 0.000315465 0.266979
0.0237266 -0.000889771 0.270898
0.0251184 -0.00103649 0.271403
0.0263196 -0.000564292 0.269914
0.0274153 0.000179067 0.26755
0.0287018 0.000301786 0.26719
0.0302954 -0.000435002 0.269606
0.0319712 -0.00132838 0.27253
0.0330807 -0.000716463 0.270595
0.0346923 -0.00137628 0.272768
0.0361222 -0.00156271 0.273414
0.0376344 -0.00192334 0.274624
0.0393681 -0.00274359 0.277321
0.0408705 -0.00302278 0.278272
0.0415793 -0.00166792 0.273941
0.0424447 -0.000709191 0.270892
0.0437017 -0.000560038 0.270459
0.0451024 -0.000688143 0.270924
0.0466084 -0.00100026 0.271985
0.0477016 -0.000572331 0.270653
0.0492473 -0.000941195 0.2719
0.0503514 -0.000558473 0.270715
0.0518502 -0.000835344 0.271666
0.054089 -0.00226746 0.276358
0.0556272 -0.00255232 0.277337
0.0562761 -0.00148847 0.273948
0.0575219 -0.00135141 0.27356
0.0590515 -0.00162866 0.274516
0.0608034 -0.0022066 0.276446
0.0624404 -0.00260276 0.277789
0.0636594 -0.00242174 0.27726
0.064619 -0.00190802 0.275652
0.0658687 -0.00178974 0.275326
0.0663971 -0.000766225 0.272063
0.0682931 -0.00147685 0.274426
0.0695218 -0.00135057 0.274074
0.0713496 -0.00194358 0.276056
0.0732698 -0.0026236 0.278321
0.0738115 -0.00169615 0.275366
0.0754708 -0.00206318 0.276614
0.076925 -0.00219048 0.277084
0.0781912 -0.00210905 0.276874
0.079384 -0.00195225 0.276419
0.0811682 -0.00242393 0.278007
0.0824071 -0.00231548 0.277707
0.0834479 -0.00200868 0.276762
0.0855011 -0.00272794 0.279153
0.0859343 -0.00182427 0.276263
0.0876301 -0.00217688 0.27746
0.0882873 -0.00152351 0.275382
0.088924 -0.000870235 0.273302
0.0903808 -0.000998862 0.273766
0.0927114 -0.00192498 0.276826
0.0937044 -0.00161549 0.275861
0.0944568 -0.00110009 0.274224
0.095822 -0.00113726 0.274385
0.0974747 -0.00142232 0.275352
0.0995869 -0.00209232 0.277573
0.0999623 -0.00127837 0.274955
0.102458 -0.00225104 0.278159
0.104116 -0.00250982 0.279035
0.105187 -0.00228426 0.278329
0.106469 -0.00223347 0.278192
0.107304 -0.00182889 0.276898
0.108791 -0.0019436 0.277296
0.11041 -0.00215654 0.278012
0.113159 -0.00322509 0.281517
0.114767 -0.00340752 0.282129
0.114461 -0.00215876 0.27807
0.117534 -0.00342556 0.282215
0.118405 -0.00305963 0.281031
0.119156 -0.00261508 0.279587
0.12057 -0.00265013 0.279706
0.123493 -0.00374457 0.283277
0.125112 -0.00390664 0.283804
0.125524 -0.00323322 0.281603
0.125979 -0.00260209 0.279536
0.127481 -0.00268785 0.279804
0.129569 -0.00315996 0.28133
0.130535 -0.00288078 0.280401
0.132157 -0.00303392 0.280879
0.132362 -0.00226822 0.278357
0.135813 -0.0035876 0.282631
0.136628 -0.00321279 0.281376
0.136941 -0.00252973 0.279112
0.136661 -0.00149081 0.275685
0.136014 -0.000245832 0.271583
0 0 0
0 0 0
0 0 0
0 0 0
0 0 0
0 0 0
0 0 0
0 0 0
0 0 0
0 0 0
-0.139905 0.00245212 0.258078
-0.140995 0.00104301 0.262667
-0.140991 0.000252329 0.265274
-0.140449 -0.000231475 0.266894
-0.138248 0.000271425 0.265348
-0.134782 0.00155222 0.261304
-0.133167 0.00173005 0.260789
-0.133687 0.000597052 0.264472
-0.132803 0.000317693 0.265416
-0.132044 -4.27738e-05 0.266615
-0.12928 0.000866033 0.263739
-0.128 0.000842638 0.263849
-0.127015 0.000628687 0.264567
-0.128219 -0.00102314 0.269895
-0.127257 -0.00127219 0.270719
-0.125225 -0.000807837 0.26925
-0.122489 0.000145443 0.266208
-0.119531 0.0012722 0.262605
-0.121223 -0.000791773 0.269241
-0.119431 -0.000462897 0.268193
-0.116563 0.000636175 0.264669
-0.114588 0.00112308 0.263108
-0.11409 0.000553422 0.264936
-0.114061 -0.000371486 0.267901
-0.112536 -0.000208706 0.267372
-0.111315 -0.000268601 0.267554
-0.110323 -0.000503093 0.268295
-0.10898 -0.00047195 0.268181
-0.107788 -0.000556998 0.268437
-0.106531 -0.000592053 0.268531
-0.10497 -0.000384562 0.267844
-0.103045 0.000121146 0.266198
-0.101672 0.000190057 0.265951
-0.100862 -0.000202358 0.267183
-0.0996873 -0.000300005 0.267467
-0.098305 -0.00022357 0.26719
-0.0954728 0.00110056 0.262911
-0.0939987 0.0012788 0.262305
-0.0933906 0.000698484 0.26413
-0.0923037 0.000530705 0.26463
-0.0907551 0.0007772 0.263801
-0.0888097 0.0013959 0.261778
-0.0878883 0.00107721 0.262757
-0.0870429 0.000677399 0.263995
-0.0861759 0.000286549 0.265202
-0.0845844 0.000590667 0.264182
-0.082944 0.000952393 0.262977
-0.0824987 0.000123486 0.265583
-0.0819263 -0.000601776 0.267855
-0.0812998 -0.00129439 0.270021
-0.0789084 -0.000148155 0.266302
-0.0762519 0.00132007 0.261553
-0.0740148 0.00238029 0.25811
-0.0738954 0.00112776 0.262064
-0.0733104 0.000356495 0.264476
-0.0717139 0.000718988 0.263263
-0.0694023 0.00193036 0.259338
-0.068441 0.00157789 0.26041
-0.0674664 0.00122763 0.261474
-0.0656878 0.00185742 0.259407
-0.0646485 0.00157918 0.26024
-0.0634557 0.0014865 0.260481
-0.0619631 0.00178246 0.25948
-0.060877 0.00154562 0.260181
-0.0595963 0.00156387 0.260067
-0.058022 0.00199246 0.258644
-0.0568505 0.00186358 0.259
-0.0554947 0.00199713 0.258519
-0.0545833 0.0014713 0.26014
-0.0532109 0.00162501 0.259595
-0.0517371 0.00194418 0.258524
-0.0510747 0.000973694 0.261562
-0.0501397 0.000401512 0.26333
-0.0490681 2.89381e-05 0.264463
-0.0477936 -1.24425e-05 0.264541
-0.0459611 0.000939786 0.261457
-0.044813 0.000686929 0.26221
-0.0435022 0.000725515 0.262037
-0.0419636 0.00120956 0.260447
-0.0404065 0.00175962 0.258648
-0.0391944 0.00162711 0.259022
-0.0382487 0.00091169 0.26125
-0.0369549 0.000918604 0.261182
-0.035176 0.00204194 0.257567
-0.0338925 0.00206374 0.257454
-0.0327275 0.00179106 0.258278
-0.0316933 0.00115608 0.260254
-0.030462 0.000996709 0.26072
-0.0289112 0.00172042 0.258383
-0.0278276 0.00113325 0.26021
-0.0265802 0.000993215 0.260618
-0.0253911 0.000647128 0.261682
-0.0241309 0.000505112 0.262099
-0.0227758 0.000687994 0.261487
-0.0213055 0.0013333 0.259409
-0.0199527 0.00157918 0.2586
-0.0186329 0.00171317 0.258148
-0.017355 0.00166821 0.258266
-0.0160137 0.00193518 0.257395
-0.0147919 0.00158786 0.258475
-0.0135317 0.00140316 0.259041
-0.0123102 0.000919603 0.260556
-0.0108158 0.00235582 0.255985
-0.0095691 0.00207778 0.256852
-0.00833358 0.00160192 0.258348
-0.0071179 0.000719234 0.261135
-0.00584675 0.000223242 0.262698
-0.00453211 0.000231721 0.262663
-0.00321796 0.000231139 0.262659
-0.00189887 0.000440553 0.261991
-0.000574298 0.00234692 0.255946
0.000707902 0.00218621 0.256455
0.00200745 0.00152752 0.258545
0.00332769 0.00087253 0.260625
0.00465257 0.000502773 0.261802
0.00597291 0.000356667 0.262273
0.00727673 0.000449009 0.261989
0.00856961 0.000616707 0.261469
0.00982377 0.00106148 0.260071
0.0111335 0.000990674 0.26031
0.0124391 0.000960335 0.260423
0.0136395 0.00156229 0.258532
0.0152379 -0.000114888 0.263871
0.0163929 0.000701219 0.261304
0.0178384 4.31612e-05 0.263415
0.0193078 -0.000630192 0.265577
0.0205513 -0.000302747 0.264565
0.0217149 0.000288256 0.262718
0.0230538 0.000179842 0.263092
0.0247226 -0.00104146 0.267
0.0260473 -0.00102901 0.266995
0.0272231 -0.000562094 0.265547
0.0284295 -0.000229605 0.264528
0.0299057 -0.00068441 0.26601
0.0314027 -0.00115797 0.267554
0.0328815 -0.00154813 0.268834
0.0337251 -0.000338465 0.265033
0.0355575 -0.00157551 0.269007
0.0370695 -0.00198942 0.270367
0.0380494 -0.00119759 0.267896
0.0390291 -0.00046023 0.265599
0.0406164 -0.00103075 0.267461
0.0418899 -0.000937372 0.267213
0.0432885 -0.0010945 0.267762
0.0446477 -0.00116969 0.268052
0.0457709 -0.000809163 0.266956
0.0470766 -0.000795364 0.266965
0.0484699 -0.000935584 0.267464
0.0498779 -0.00109456 0.268024
0.050737 -0.000344105 0.265688
0.0524565 -0.00101178 0.267869
0.0537378 -0.000962585 0.267768
0.0557149 -0.00197937 0.271063
0.056809 -0.00163309 0.270016
0.0585404 -0.00223257 0.271984
0.0602497 -0.00277489 0.273771
0.0615134 -0.00267339 0.273505
0.062895 -0.00273806 0.273769
0.0641019 -0.00256759 0.273283
0.0643748 -0.00118231 0.268921
0.0656741 -0.00116996 0.268938
0.0663482 -0.000372253 0.266448
0.0676386 -0.000366338 0.266485
0.0699566 -0.00160524 0.270498
0.0705853 -0.000791639 0.267955
0.0736009 -0.00279325 0.274407
0.0745217 -0.00232335 0.272961
0.0751406 -0.00153042 0.270482
0.0760951 -0.00113656 0.269277
0.0782614 -0.0020749 0.272331
0.0787417 -0.00117838 0.269517
0.0796441 -0.000755683 0.268217
0.0813402 -0.00116877 0.269589
0.0827247 -0.0012515 0.269905
0.0843242 -0.00154748 0.270901
0.0859721 -0.00188235 0.272022
0.0870883 -0.00168961 0.271452
0.0880809 -0.00138402 0.27052
0.09021 -0.00216129 0.273055
0.0913225 -0.00196915 0.272483
0.0924552 -0.00180095 0.271987
0.0935771 -0.00162739 0.271472
0.0945003 -0.00128098 0.270401
0.0975542 -0.0028199 0.275372
0.0983765 -0.00237843 0.273993
0.0996899 -0.00236916 0.273998
0.100775 -0.00216679 0.273383
0.101962 -0.00205341 0.27305
0.103977 -0.00262541 0.274914
0.104368 -0.00186051 0.272488
0.105815 -0.00196264 0.27284
0.107747 -0.00244657 0.274416
0.10857 -0.00204845 0.273159
0.109337 -0.00161575 0.271789
0.11225 -0.00283415 0.275715
0.115856 -0.00454763 0.281228
0.11589 -0.00354999 0.278037
0.116 -0.00262988 0.275093
0.117282 -0.00258568 0.274957
0.118528 -0.0025157 0.274735
0.122514 -0.00440199 0.28079
0.123684 -0.00425672 0.28032
0.123498 -0.00316633 0.276815
0.12407 -0.00262111 0.275056
0.125791 -0.00287218 0.275849
0.128364 -0.00369149 0.278463
0.130449 -0.00416513 0.279963
0.128876 -0.00220657 0.273656
0.132004 -0.00336526 0.277347
0.134272 -0.00394051 0.279162
0.136741 -0.00463138 0.281343
0.13669 -0.00370538 0.278335
0.135982 -0.00238322 0.274053
0.135678 -0.00133656 0.270651
0 0 0
0 0 0
0 0 0
0 0 0
0 0 0
0 0 0
0 0 0
0 0 0
0 0 0
0 0 0
-0.139969 0.0011769 0.257924
-0.139531 0.000648752 0.259669
-0.140283 -0.000596792 0.26367
-0.138254 -0.000188261 0.262455
-0.133821 0.00169283 0.256592
-0.132771 0.00153599 0.257148
-0.131691 0.00139686 0.257643
-0.131377 0.000777915 0.259649
-0.131259 2.47285e-05 0.262074
-0.131074 -0.000698909 0.264402
-0.128295 0.000239857 0.26148
-0.124002 0.00218809 0.255367
-0.124111 0.00127701 0.258276
-0.127418 -0.001781 0.26796
-0.127168 -0.00250777 0.270281
-0.124817 -0.00181876 0.268128
-0.120907 -4.14252e-05 0.262533
-0.118286 0.000880577 0.259637
-0.116415 0.00129694 0.258333
-0.118633 -0.00118058 0.266168
-0.114432 0.000899442 0.259603
-0.112885 0.00109889 0.258976
-0.112526 0.000432149 0.261082
-0.111178 0.000485994 0.260909
-0.110771 -0.000164546 0.262958
-0.109985 -0.000540726 0.264138
-0.109009 -0.000779532 0.264882
-0.107719 -0.00077758 0.264862
-0.105989 -0.000428259 0.263743
-0.105071 -0.000717215 0.264637
-0.102262 0.000514694 0.260727
-0.0996483 0.00161806 0.257221
-0.0988457 0.00125104 0.258356
-0.0989513 0.000113808 0.26192
-0.0982993 -0.000408806 0.263541
-0.0958551 0.000597656 0.260334
-0.0940995 0.00103098 0.258934
-0.0926894 0.00117109 0.258459
-0.0917774 0.000869311 0.259376
-0.0911095 0.000337832 0.261015
-0.0896155 0.000552505 0.2603
-0.0882086 0.000692211 0.259819
-0.0870447 0.000605963 0.26005
-0.0861867 0.000223212 0.261214
-0.0845722 0.000567392 0.260085
-0.0829167 0.000962466 0.258794
-0.0821104 0.000515789 0.260156
-0.0819819 -0.000636935 0.26374
-0.0814033 -0.0013594 0.265966
-0.078684 0.000151232 0.261159
-0.0765958 0.00103485 0.258326
-0.0750239 0.00138532 0.257172
-0.0739758 0.0011673 0.257807
-0.0734918 0.0003061 0.260465
-0.0716355 0.000987105 0.258269
-0.0697961 0.00167216 0.256061
-0.0686401 0.00156999 0.256329
-0.06731 0.00167413 0.255948
-0.0663636 0.00130869 0.257042
-0.0648141 0.00168615 0.255801
-0.0638374 0.0013442 0.256821
-0.0626712 0.00123545 0.257107
-0.0609311 0.00188618 0.255008
-0.059712 0.0018546 0.255052
-0.0585983 0.00167421 0.255563
-0.0572937 0.00175619 0.255251
-0.0560162 0.00180142 0.255054
-0.0545154 0.00217923 0.253814
-0.053486 0.00185768 0.254768
-0.0522683 0.00181241 0.254856
-0.0512141 0.00150344 0.255771
-0.0501653 0.00116906 0.256765
-0.0493834 0.000369012 0.259219
-0.0479656 0.00061883 0.258383
-0.0461158 0.00164369 0.25512
-0.0446012 0.00211597 0.253589
-0.0437467 0.00138132 0.255839
-0.0420959 0.00213286 0.253436
-0.0408104 0.00220519 0.253161
-0.0398268 0.00166307 0.25481
-0.0389397 0.000880681 0.25721
-0.0378884 0.000401989 0.258661
-0.0365141 0.000617787 0.25794
-0.035017 0.00113486 0.256278
-0.0334924 0.00175597 0.254292
-0.0323404 0.00148351 0.255102
-0.0312987 0.000897668 0.256892
-0.0298595 0.00134847 0.255443
-0.0286689 0.00112669 0.256097
-0.0273795 0.00117765 0.255901
-0.0263231 0.000500977 0.257979
-0.0251274 0.000212319 0.258846
-0.0238932 2.42442e-05 0.2594
-0.0224455 0.000597194 0.257579
-0.0210256 0.00112927 0.255887
-0.0194942 0.00219052 0.252545
-0.018418 0.00137725 0.255058
-0.0171244 0.00147659 0.254723
-0.0158447 0.0015186 0.254568
-0.0145788 0.00148831 0.254641
-0.0132905 0.00158686 0.254313
-0.0119812 0.00184684 0.253484
-0.0106976 0.00197116 0.253079
-0.00943697 0.00192858 0.253197
-0.00821923 0.00144446 0.254695
-0.00693852 0.00152037 0.254447
-0.00571013 0.000874378 0.256453
-0.00446409 0.000178851 0.258615
-0.00319143 -0.000391945 0.260389
-0.00187608 0.000133157 0.258747
-0.000567951 0.00195948 0.253048
0.000696417 0.00224645 0.252153
0.00197266 0.00167313 0.253943
0.00327976 0.000773527 0.256753
0.00458404 0.000429899 0.25783
0.00587755 0.000387259 0.25797
0.0071744 0.000319786 0.25819
0.00840209 0.000947274 0.256243
0.00964977 0.00123732 0.255351
0.0109867 0.000789523 0.256763
0.0123157 0.000486046 0.257726
0.0136223 0.000374869 0.258091
0.0148082 0.000950381 0.256315
0.0161916 0.000423782 0.25798
0.0176922 -0.000580609 0.261138
0.0191376 -0.00120661 0.263117
0.0203048 -0.000606909 0.261272
0.0213963 0.000211693 0.258745
0.0227055 0.000140093 0.258999
0.0242174 -0.000626512 0.261424
0.0258201 -0.00161432 0.264543
0.0269609 -0.00106641 0.262866
0.0280918 -0.000541568 0.261263
0.0294389 -0.000679977 0.261733
0.0309498 -0.00125497 0.263569
0.0320453 -0.000698619 0.261871
0.0335598 -0.00124054 0.263607
0.0342598 0.000226721 0.259062
0.0362274 -0.00136882 0.264096
0.0375088 -0.0013107 0.263959
0.0382759 -0.00013978 0.260343
0.0394801 3.37884e-05 0.259847
0.0415011 -0.00146917 0.264598
0.0426052 -0.00107075 0.263401
0.0438862 -0.00103653 0.263344
0.0447516 -0.000231668 0.260875
0.0461369 -0.000414297 0.261498
0.0477808 -0.00104341 0.263521
0.0490507 -0.000999637 0.263437
0.0502626 -0.00086236 0.263061
0.051289 -0.000431314 0.261764
0.0530003 -0.0011103 0.263947
0.055197 -0.00251093 0.268395
0.0561562 -0.00197289 0.266764
0.0571761 -0.00155035 0.265495
0.0583312 -0.00134332 0.264902
0.0601505 -0.00208668 0.267291
0.0613501 -0.00194047 0.266889
0.063194 -0.00267573 0.269255
0.0635762 -0.00143844 0.265427
0.0644172 -0.00084918 0.263633
0.0656015 -0.000722282 0.26329
0.0664897 -0.000229932 0.261799
0.0689174 -0.00164945 0.266316
0.0696968 -0.00102796 0.264418
0.0710885 -0.00115522 0.264873
0.0739148 -0.00294821 0.270567
0.0739978 -0.00154178 0.266198
0.0747688 -0.00095728 0.264413
0.0760776 -0.000987209 0.26456
0.0775543 -0.00119882 0.265278
0.0788832 -0.00124593 0.265478
