ply
format ascii 1.0
comment Generated by sampleExportPLY
element vertex 1582
property float x
property float y
property float z
element face 0
property list uchar int vertex_index
end_header
0.0472401 -0.00249976 0.186257
0.049008 -0.00403475 0.189519
0.0497682 -0.00369827 0.188834
0.0490832 -0.000822194 0.182794
0.0500212 -0.000864916 0.182907
0.0511352 -0.00120582 0.183648
0.0518439 -0.000856519 0.182933
0.0524956 -0.000425689 0.182044
0.0540714 -0.0015024 0.184336
0.0554953 -0.00230148 0.186041
0.0550675 -0.000181139 0.181583
0.054066 0.00275279 0.175407
0.057102 -0.000513822 0.182317
0.0582703 -0.000896759 0.183139
0.0595225 -0.00139052 0.184194
0.0605401 -0.00153025 0.1845
0.061241 -0.00121509 0.183845
0.0616178 -0.000454798 0.182247
0.0630754 -0.00120817 0.183845
0.0647468 -0.00223017 0.186008
0.0647967 -0.00104805 0.183514
0.0665563 -0.0021593 0.185862
0.0675243 -0.00220685 0.185962
0.0681775 -0.00184745 0.185201
0.0683799 -0.00092496 0.183248
0.0692805 -0.000900611 0.18319
0.0713392 -0.0023073 0.186151
0.0727803 -0.00292347 0.18744
0.0734123 -0.00254864 0.186635
0.0729551 -0.00088726 0.183112
0.0743757 -0.00147136 0.184326
0.0752338 -0.00138774 0.184128
0.0765893 -0.00187498 0.185133
0.0779308 -0.00233349 0.186073
0.0784639 -0.00187607 0.185078
0.0796006 -0.00209513 0.185507
0.0811067 -0.00271145 0.186771
0.0816926 -0.00231886 0.185904
0.0816854 -0.00130127 0.183716
0.0841806 -0.00294505 0.187134
0.081865 0.000467286 0.179895
0.0834378 -0.00020545 0.181261
0.0844717 -0.000312261 0.18143
0.0850039 9.10088e-05 0.180522
0.0863155 -0.000290729 0.181262
0.0877112 -0.000745714 0.182151
0.0892655 -0.00134419 0.183338
0.0890811 -0.000247784 0.180957
0.0882445 0.00145137 0.177307
0.0929963 -0.00217272 0.184834
0.0925504 -0.000850968 0.181969
0.0943521 -0.00163826 0.183525
0.0954513 -0.00176284 0.183686
0 0 0
0 0 0
0 0 0
0 0 0
0 0 0
0 0 0
0 0 0
0 0 0
0 0 0
0 0 0
-0.0958417 0.00357123 0.169646
-0.0974301 0.00140028 0.174263
-0.0970046 0.000952236 0.175324
-0.0964754 0.000589699 0.176203
-0.0947766 0.00126626 0.174929
-0.0937699 0.00133492 0.174905
-0.0922245 0.00189759 0.173853
-0.0886227 0.00436477 0.168848
-0.0888976 0.00328317 0.171189
-0.090134 0.00127933 0.17544
-0.0890718 0.00141528 0.175251
-0.0869092 0.00261 0.172858
-0.0860124 0.00260659 0.172947
-0.086645 0.00110891 0.176137
-0.0863045 0.000543073 0.177389
-0.0838629 0.00206605 0.174292
-0.0834531 0.00157166 0.175386
-0.082365 0.00176062 0.175055
-0.0812014 0.00203332 0.174546
-0.0787335 0.00367486 0.171181
-0.0783765 0.00312682 0.172373
-0.0789369 0.00158818 0.175627
-0.0769726 0.00274181 0.173266
-0.0744309 0.00455411 0.169528
-0.0753968 0.00253378 0.173778
-0.0767425 4.21181e-05 0.179011
-0.0752501 0.000703543 0.177663
-0.0738128 0.00131903 0.176408
-0.0730078 0.00121757 0.176647
-0.0718661 0.0015098 0.17606
-0.0700459 0.00261658 0.173771
-0.0684262 0.00351118 0.171922
-0.0690186 0.00173337 0.175649
-0.0685218 0.00125507 0.176662
-0.0675254 0.00138997 0.176392
-0.0668614 0.00110784 0.17699
-0.0657545 0.0013879 0.176413
-0.0648311 0.00143724 0.176315
-0.0641149 0.00121526 0.176782
-0.0644407 -0.000407346 0.180172
-0.0633926 -0.000210032 0.179759
-0.0621819 0.000217445 0.178864
-0.0612195 0.000310972 0.178664
-0.060602 -8.13752e-05 0.179478
-0.0595446 0.000148259 0.178991
-0.0582187 0.000777625 0.177668
-0.0570354 0.00121526 0.176744
-0.0562945 0.0010002 0.177181
-0.0549959 0.0016327 0.175848
-0.0541432 0.00159206 0.175919
-0.0532204 0.00166115 0.175759
-0.0527199 0.00105358 0.177011
-0.0521573 0.000527054 0.178093
-0.0505962 0.00164445 0.175742
-0.0492835 0.00238048 0.174187
-0.0487622 0.00177872 0.175423
-0.048007 0.00156558 0.175847
-0.0471913 0.0014527 0.17606
-0.0463452 0.001391 0.176167
-0.0450739 0.00211688 0.17463
-0.0441 0.002308 0.174208
-0.0434009 0.00197558 0.174877
-0.0431539 0.000737704 0.177432
-0.0424592 0.000349388 0.178216
-0.0415754 0.000333205 0.178224
-0.040462 0.00079868 0.177228
-0.0398947 0.000111267 0.178634
-0.0387114 0.000746228 0.177284
-0.0382609 -0.000238203 0.179308
-0.0373295 -0.000162005 0.179122
-0.0363153 0.000113174 0.178522
-0.0358075 -0.000823848 0.180445
-0.0349035 -0.000826105 0.180422
-0.0335214 0.000390351 0.177863
-0.0328815 -0.000271358 0.179213
-0.0322709 -0.00104959 0.180805
-0.0313812 -0.00109992 0.180883
-0.0304459 -0.00102351 0.180697
-0.0295747 -0.00113131 0.180895
-0.0288543 -0.00170437 0.18206
-0.027902 -0.00158886 0.181794
-0.0259676 0.00171648 0.174897
-0.0255807 6.26519e-05 0.17831
-0.0247745 -0.000254445 0.178945
-0.0240167 -0.000770628 0.179994
-0.0231968 -0.00109496 0.180644
-0.0221126 -0.000415571 0.17921
-0.0211849 -0.000315867 0.178981
-0.0208291 -0.00263724 0.183781
-0.019857 -0.00243564 0.183341
-0.0186427 -0.00108533 0.180517
-0.0175527 -0.000206225 0.178672
-0.0168896 -0.00143981 0.181214
-0.0157071 2.30968e-05 0.17816
-0.0149181 -0.000617683 0.179473
-0.0140178 -0.000655644 0.179536
-0.0130489 -0.000246733 0.178672
-0.0121478 -0.000258759 0.178683
-0.0112389 -0.000214025 0.178577
-0.0100816 0.00190569 0.174167
-0.00944201 -0.000292361 0.178715
-0.00856065 -0.000517659 0.179172
-0.0076406 -0.000360675 0.178837
-0.00671845 -0.00013572 0.178362
-0.00583113 -0.000356779 0.178813
-0.00492862 -0.000394434 0.178885
-0.00399612 0.000193007 0.177661
-0.00310545 -3.694e-05 0.178133
-0.00220298 3.66569e-06 0.178046
-0.00129483 0.000472911 0.17707
-0.000399148 0.000379823 0.177262
0.000496752 0.00058654 0.176833
0.00144643 -0.00276744 0.183789
0.00231798 -0.000583299 0.179262
0.0032117 -0.000222474 0.178516
0.00411443 -0.000208981 0.178492
0.00503179 -0.000451967 0.179001
0.00593609 -0.000431769 0.178965
0.00682199 -0.000185356 0.178461
0.00767417 0.000378251 0.1773
0.00866829 -0.000592217 0.179322
0.00977485 -0.00239477 0.183072
0.0104069 2.72095e-05 0.178058
0.0114395 -0.000977121 0.180154
0.0124754 -0.00185776 0.181994
0.0134864 -0.00245536 0.183248
0.0144412 -0.00263204 0.18363
0.0152988 -0.00222875 0.182809
0.016108 -0.00160885 0.181539
0.0170981 -0.00198633 0.18234
0.0179881 -0.00183766 0.18205
0.0188691 -0.00166235 0.181705
0.0198128 -0.00178097 0.181971
0.0209628 -0.0027623 0.184029
0.0218602 -0.00263837 0.183793
0.0226204 -0.00199229 0.182474
0.0233777 -0.00138625 0.181237
0.0242204 -0.00113335 0.180735
0.0251098 -0.0010611 0.180608
0.0259543 -0.000844322 0.180182
0.0267491 -0.000482336 0.179454
0.0276521 -0.000482298 0.179478
0.0290671 -0.002031 0.182723
0.029396 -0.000301801 0.179154
0.0294545 0.002093 0.174199
0.0318202 -0.0020228 0.182785
0.0316948 0.000778735 0.176984
0.0334676 -0.00152916 0.181812
0.0339823 -0.000517242 0.179733
0.0352237 -0.00135736 0.181509
0.0360457 -0.0011433 0.18109
0.0364667 4.23193e-06 0.178728
0.0376114 -0.00056684 0.179944
0.0385481 -0.00064455 0.180133
0.0394232 -0.000583865 0.180033
0.0409025 -0.00182115 0.182637
0.0418855 -0.00196405 0.182961
0.0420096 -0.000338785 0.179601
0.0427133 5.41359e-05 0.178807
0.043589 9.21711e-05 0.178753
0.0448028 -0.000523306 0.180061
0.0462503 -0.00155614 0.182238
0.0482608 -0.00359257 0.186508
0.0484293 -0.0022025 0.183633
0.0486207 -0.000905126 0.18095
0.0498785 -0.00152314 0.182261
0.0508669 -0.00165553 0.182558
0.0514316 -0.00106717 0.181351
0.0524174 -0.00119837 0.181644
0.0537562 -0.00190111 0.183128
0.0540391 -0.000885315 0.181026
0.0543786 7.98702e-06 0.179177
0.0553983 -0.000184037 0.179593
0.0576264 -0.00221638 0.183849
0.0567597 0.000470884 0.178251
0.0599689 -0.00296117 0.185427
0.0605522 -0.00245841 0.184388
0.0612287 -0.00210419 0.183656
0.0623304 -0.00236179 0.184201
0.0632294 -0.00232886 0.184137
0.0643635 -0.00261943 0.184747
0.0658317 -0.00335392 0.186283
0.0642319 3.20673e-05 0.179212
0.0664137 -0.00165785 0.182738
0.0674821 -0.00185391 0.183144
0.0678728 -0.0011751 0.18172
0.0686627 -0.00101861 0.181385
0.0714463 -0.00335482 0.186252
0.0721829 -0.00310692 0.185721
0.0684843 0.00253186 0.173935
0.0704753 0.00119387 0.17671
0.072654 -0.000332393 0.179876
0.0737545 -0.000556655 0.180321
0.0757428 -0.00180198 0.182894
0.0766006 -0.00172361 0.182702
0.0774744 -0.00166411 0.182546
0.0788411 -0.00215505 0.183536
0.0802457 -0.0026752 0.184582
0.081541 -0.00306279 0.185349
0.0821876 -0.00274098 0.184634
0.0822258 -0.00177658 0.182576
0.0833958 -0.00202519 0.183043
0.0832547 -0.000900492 0.180646
0.0841597 -0.000877313 0.18054
0.085656 -0.00145575 0.181682
0.0862029 -0.00106281 0.180798
0.0876135 -0.00153809 0.181717
0.0880727 -0.00106272 0.180654
0.0893893 -0.0014329 0.181345
0.0914979 -0.00255874 0.1836
0.0896342 0.000139318 0.177911
0.0916047 -0.000845037 0.179862
0.0936398 -0.00186791 0.181886
0.0944631 -0.0017442 0.181527
0 0 0
0 0 0
0 0 0
0 0 0
0 0 0
0 0 0
0 0 0
0 0 0
0 0 0
0 0 0
-0.0973512 0.00143056 0.172039
-0.0971146 0.000822641 0.173422
-0.0966706 0.000388868 0.174446
-0.0944705 0.00151692 0.172275
-0.0933732 0.00167535 0.172077
-0.0924515 0.00167949 0.172188
-0.0903065 0.00281094 0.169986
-0.0882284 0.00390521 0.167853
-0.0877623 0.00351134 0.168761
-0.0885018 0.00196867 0.172021
-0.0870393 0.00250494 0.171015
-0.0845095 0.00408697 0.167856
-0.0843176 0.00341822 0.169311
-0.0849292 0.00194326 0.172421
-0.0861971 -0.000216708 0.176937
-0.0844196 0.000652246 0.175224
-0.0820022 0.0021947 0.172119
-0.0806509 0.00267287 0.171199
-0.0791979 0.00326921 0.17003
-0.0782226 0.00337657 0.169865
-0.0781016 0.00257698 0.171564
-0.0786492 0.0010394 0.174781
-0.0776871 0.0011147 0.174673
-0.0756368 0.00239383 0.172079
-0.0759489 0.0010669 0.174854
-0.0754072 0.000674196 0.175701
-0.0742087 0.001024 0.175014
-0.0728962 0.00151537 0.174031
-0.0724632 0.000989802 0.175144
-0.0711922 0.00144573 0.174228
-0.0696342 0.00225875 0.172572
-0.0682815 0.00284372 0.171385
-0.0683658 0.00167527 0.173815
-0.0679254 0.00113174 0.174953
-0.0672357 0.000889681 0.175466
-0.0658742 0.00150237 0.174211
-0.065276 0.00114166 0.174965
-0.0648566 0.00053665 0.176221
-0.0640473 0.00043565 0.176435
-0.0635727 -0.000120357 0.177586
-0.062455 0.000190623 0.176945
-0.0608255 0.00122342 0.17481
-0.0596026 0.00171281 0.173797
-0.059479 0.00064224 0.176004
-0.0590143 3.60757e-05 0.17725
-0.0576243 0.000777803 0.175711
-0.057101 0.000243619 0.176806
-0.0557476 0.000957161 0.175322
-0.0549578 0.000821859 0.17559
-0.0539487 0.00102729 0.175153
-0.0530441 0.00107267 0.175045
-0.0517779 0.00170746 0.17372
-0.0504706 0.00243222 0.172208
-0.0498887 0.00196233 0.173161
-0.0494012 0.00131446 0.17448
-0.048717 0.0009863 0.175139
-0.0479497 0.000793405 0.175517
-0.0465952 0.00165452 0.17372
-0.0459945 0.00116032 0.174718
-0.0455352 0.000381708 0.176302
-0.0444429 0.000783928 0.17545
-0.0430381 0.00181246 0.173306
-0.0427751 0.000607714 0.175766
-0.0423232 -0.000263296 0.177538
-0.0414681 -0.000333689 0.177658
-0.0408446 -0.000899479 0.178799
-0.0398587 -0.000703566 0.17837
-0.0384491 0.000442185 0.175983
-0.0372554 0.00115077 0.174498
-0.0363803 0.00115112 0.174471
-0.0355962 0.000934303 0.174892
-0.0347126 0.000949472 0.174835
-0.0339238 0.000727281 0.175267
-0.0331563 0.000438064 0.175836
-0.0323897 0.00013034 0.176444
-0.0319742 -0.0011507 0.179054
-0.0311307 -0.00130766 0.179351
-0.0302902 -0.00148339 0.179687
-0.0295329 -0.00191753 0.180554
-0.0286439 -0.00197599 0.180649
-0.027842 -0.00231458 0.18132
-0.0266533 -0.00141001 0.179435
-0.0249687 0.00123782 0.173967
-0.0242047 0.000844084 0.174753
-0.0234278 0.000467516 0.175505
-0.0228656 -0.000752732 0.17799
-0.0220801 -0.00119302 0.178873
-0.0212558 -0.00151154 0.179506
-0.0204927 -0.00212216 0.180739
-0.0194829 -0.00168178 0.179814
-0.0182929 -0.000350185 0.17706
-0.0174661 -0.000681616 0.177722
-0.0165675 -0.000675194 0.17769
-0.0156411 -0.000514977 0.177344
-0.0147116 -0.000317521 0.176923
-0.0138352 -0.000426881 0.177132
-0.0128916 -0.000104025 0.176454
-0.0121295 -0.00103393 0.178349
-0.0109085 0.00143678 0.173265
-0.0101729 0.000254147 0.17568
-0.00910934 0.0018675 0.172359
-0.00841386 6.90222e-05 0.176039
-0.00754467 -0.000175416 0.176532
-0.00669881 -0.00078813 0.177781
-0.00580614 -0.000892662 0.177988
-0.00484402 0.000191711 0.175757
-0.00401192 -0.00105378 0.178307
-0.0030991 -0.00076703 0.177714
-0.00218928 -0.000365794 0.176888
-0.00128769 4.14848e-05 0.17605
-0.000390826 0.00125327 0.173563
0.000493898 0.000206687 0.17571
0.00138643 2.25455e-05 0.176088
0.00228871 -0.000385165 0.176926
0.00318536 -0.000411451 0.176983
0.00407972 -0.000378311 0.176919
0.00498902 -0.000616699 0.177413
0.00589539 -0.000739954 0.177671
0.00677186 -0.00045003 0.177083
0.00766924 -0.000464074 0.17712
0.00853041 -0.000110798 0.176404
0.00943263 -0.000199616 0.176596
0.0102645 0.000312373 0.175556
0.0112678 -0.000572495 0.177383
0.0124669 -0.00271916 0.181802
0.0135297 -0.00366881 0.183765
0.0143324 -0.00288767 0.182176
0.0151238 -0.00213506 0.180646
0.0159208 -0.00149995 0.179358
0.016789 -0.00130367 0.178972
0.0177997 -0.00182947 0.180069
0.0186538 -0.00157123 0.179557
0.0195321 -0.00144588 0.179319
0.0205073 -0.00174563 0.179955
0.0214797 -0.00200942 0.180517
0.022346 -0.00183614 0.180182
0.0229913 -0.000843495 0.178164
0.0239624 -0.00110842 0.178731
0.0250106 -0.00162425 0.179814
0.0257692 -0.00112723 0.178815
0.0264451 -0.000394359 0.177332
0.0282198 -0.00317685 0.183078
0.0285377 -0.0013327 0.17931
0.0294952 -0.0014964 0.179671
0.0306297 -0.00215934 0.18106
0.0310533 -0.000800855 0.178291
0.0312907 0.000986151 0.174639
0.0319152 0.00165398 0.17329
0.0342148 -0.00201584 0.180869
0.0349557 -0.00159677 0.180032
0.0356791 -0.00115652 0.179152
0.03668 -0.00139828 0.179675
0.0366365 0.000795998 0.175182
0.0373924 0.00107486 0.174633
0.0393008 -0.00121268 0.179371
0.0406951 -0.00228451 0.181604
0.041053 -0.00111414 0.179218
0.0415818 -0.000348136 0.177664
0.0421609 0.000283271 0.176387
0.044005 -0.00162597 0.180346
0.0445898 -0.00100548 0.179091
0.0456354 -0.00128928 0.179699
0.0466865 -0.00157267 0.180306
0.047359 -0.00114959 0.179455
0.048903 -0.00231344 0.181877
0.050202 -0.00300132 0.183317
0.0505093 -0.00194042 0.181148
0.0512761 -0.0017014 0.180673
0.0528389 -0.00280632 0.182972
0.0532503 -0.00197425 0.181271
0.0541649 -0.00198591 0.181311
0.0547773 -0.00151505 0.180354
0.0539669 0.00117346 0.174818
0.0553225 0.00043188 0.17636
0.0568232 -0.000506535 0.178309
0.0577761 -0.000595897 0.178503
0.0601162 -0.00272618 0.182909
0.0606324 -0.00214493 0.181716
0.0605484 -0.000722252 0.178783
0.0625362 -0.00225975 0.181962
0.063042 -0.00169429 0.180796
0.0643678 -0.00226707 0.181978
0.0643125 -0.000958733 0.179275
0.0646617 -0.000224546 0.177755
0.0657408 -0.000468023 0.178252
0.0669994 -0.000936769 0.179212
0.0696428 -0.00316247 0.183797
0.0693931 -0.00167952 0.180723
0.0702523 -0.00161482 0.180575
0.0740786 -0.00519795 0.187954
0.0711596 -0.000503354 0.178245
0.0713746 0.000318877 0.176526
0.0734181 -0.00104248 0.179311
0.0737782 -0.000401348 0.177961
0.0753766 -0.00120493 0.179589
0.0768239 -0.00181574 0.180815
0.078115 -0.00223487 0.181643
0.0803113 -0.00365175 0.184524
0.0809541 -0.00332328 0.183804
0.0810304 -0.00238411 0.181822
0.0823198 -0.00277089 0.182569
0.0835752 -0.00311137 0.183217
0.0839389 -0.00250411 0.181909
0.0831791 -0.000739194 0.178216
0.0858387 -0.00253209 0.181841
0.0870459 -0.00280531 0.182334
0.0866396 -0.00144511 0.179465
0.0877322 -0.00160635 0.17972
0.0888417 -0.00177917 0.179994
0.0869081 0.00102387 0.174154
0.0887019 0.000170104 0.175818
0.0899412 -0.000134088 0.176349
0.0926617 -0.00183175 0.179731
0.094757 -0.00290733 0.181829
0 0 0
0 0 0
0 0 0
0 0 0
0 0 0
0 0 0
0 0 0
0 0 0
0 0 0
0 0 0
-0.0926852 0.00467359 0.163523
-0.0937554 0.0029431 0.167152
-0.0964391 -0.000259407 0.173751
-0.0909787 0.00382136 0.165647
-0.0913982 0.00263102 0.168177
-0.0905913 0.00254714 0.168467
-0.0895856 0.00264845 0.168377
-0.0885378 0.00279353 0.168193
-0.0876406 0.00280098 0.168282
-0.086807 0.00274976 0.168486
-0.0851015 0.00354278 0.166972
-0.0841065 0.00365987 0.166823
-0.0827164 0.00417144 0.165869
-0.0825636 0.00346088 0.167393
-0.0835592 0.00157857 0.171295
-0.0829551 0.00128826 0.171959
-0.0818635 0.00149579 0.171607
-0.0800604 0.0024506 0.16973
-0.0783935 0.00328474 0.168094
-0.0782852 0.00247891 0.169792
-0.0793091 0.000436909 0.174006
-0.0787629 6.01783e-05 0.174825
-0.0780336 -0.000122041 0.175246
-0.0776571 -0.000700466 0.176471
-0.0762758 -0.000157997 0.175407
-0.0751616 9.37656e-05 0.174933
-0.0739323 0.000485674 0.174169
-0.0725451 0.0010727 0.173004
-0.0720552 0.000613704 0.173971
-0.0713859 0.000359334 0.174517
-0.068948 0.00224425 0.170694
-0.0686574 0.00154097 0.172152
-0.0681729 0.00106175 0.17315
-0.0669613 0.00148713 0.172298
-0.0661054 0.0014704 0.172347
-0.065305 0.00138222 0.172539
-0.0632353 0.00295654 0.169334
-0.0642765 0.000440456 0.174482
-0.064166 -0.000592783 0.176599
-0.0619159 0.0012686 0.172801
-0.0613688 0.000823893 0.173712
-0.0593644 0.00241534 0.170461
-0.0585334 0.00238038 0.170532
-0.057813 0.00218491 0.170928
-0.0572073 0.00181551 0.171679
-0.057467 0.00014443 0.175087
-0.0567598 -0.000113346 0.175606
-0.0558704 -9.87351e-05 0.175567
-0.0547544 0.000270978 0.174802
-0.0539333 0.000184491 0.174967
-0.0529887 0.000295013 0.174729
-0.0514201 0.00143395 0.17239
-0.0503691 0.00174759 0.171735
-0.0495763 0.00163383 0.171952
-0.0492172 0.000766285 0.173706
-0.0489169 -0.000235736 0.175734
-0.0477797 0.000225633 0.174773
-0.0463584 0.00122287 0.172719
-0.0455668 0.00108655 0.172977
-0.0458065 -0.0010108 0.177236
-0.0451621 -0.00148107 0.178174
-0.0431494 0.000728846 0.173643
-0.042044 0.00120301 0.172654
-0.0412272 0.00110376 0.172834
-0.0413681 -0.00101095 0.177122
-0.0404117 -0.000863977 0.176799
-0.0395476 -0.000913016 0.176874
-0.0381591 0.000212461 0.174555
-0.0371132 0.00060381 0.173733
-0.0359866 0.00120338 0.172487
-0.0347884 0.00200488 0.17083
-0.033816 0.00228856 0.170227
-0.0335573 0.000777267 0.173281
-0.0331017 -0.000302441 0.175455
-0.0324396 -0.000889331 0.176625
-0.0315568 -0.000902936 0.176627
-0.0308218 -0.00133578 0.177483
-0.0300035 -0.00155213 0.177899
-0.0290491 -0.00137353 0.177511
-0.0278916 -0.000554845 0.175821
-0.0270511 -0.000697576 0.176087
-0.0263922 -0.00145084 0.177596
-0.0252551 -0.000620164 0.175883
-0.0241601 0.000120722 0.174354
-0.0233758 -0.000227094 0.175039
-0.0225317 -0.000373922 0.175316
-0.0216583 -0.000416391 0.175381
-0.0210596 -0.001604 0.177774
-0.0202361 -0.00192291 0.178402
-0.0191788 -0.00121102 0.176936
-0.0181124 -0.000386477 0.175242
-0.0173055 -0.000777297 0.176018
-0.0165628 -0.00155012 0.17757
-0.0156178 -0.00128297 0.177011
-0.0145816 -0.000444539 0.175292
-0.0136928 -0.000427693 0.175243
-0.0129436 -0.00134898 0.1771
-0.0120974 -0.00170659 0.177812
-0.0111426 -0.00127342 0.17692
-0.0099931 0.000890777 0.172514
-0.00914183 0.000689656 0.172912
-0.00819167 0.00146385 0.17133
-0.00749663 -0.000518911 0.175347
-0.00663381 -0.000842363 0.175995
-0.00572564 -0.000582427 0.175461
-0.00478127 0.000418857 0.173422
-0.00390629 0.000350691 0.173555
-0.00308469 -0.00126579 0.176832
-0.00219569 -0.00152376 0.177353
-0.00126975 0.000347346 0.173553
-0.000393493 -0.000239752 0.174743
0.000487962 0.000377975 0.173489
0.00137869 -0.000379018 0.175026
0.00226453 -0.0003573 0.174984
0.00317043 -0.000897534 0.176083
0.00404319 -0.000493139 0.175266
0.00494184 -0.000688374 0.175667
0.00572611 0.000872858 0.172504
0.00674125 -0.000952572 0.176216
0.00760268 -0.000604026 0.175516
0.00857942 -0.00150316 0.177349
0.00939768 -0.000771746 0.175874
0.0102803 -0.000709325 0.175757
0.0113144 -0.00183182 0.178048
0.0123919 -0.00310046 0.180636
0.0132146 -0.00249267 0.179415
0.0142049 -0.00301177 0.180483
0.0149124 -0.00180658 0.178051
0.0156582 -0.000951409 0.176329
0.0163075 0.000317097 0.173768
0.0172852 -0.000178933 0.174793
0.0185977 -0.00221285 0.178943
0.0194149 -0.00182261 0.178168
0.0203077 -0.00179335 0.178128
0.0212854 -0.00211811 0.178808
0.0220902 -0.00173125 0.178042
0.0227877 -0.000966698 0.176508
0.0237145 -0.00110066 0.176802
0.0247708 -0.00168335 0.178009
0.0256118 -0.00149138 0.177641
0.0264198 -0.00120428 0.17708
0.0272297 -0.000942402 0.17657
0.0282688 -0.00140508 0.177535
0.0290101 -0.00094869 0.17663
0.0301373 -0.00164013 0.178061
0.0305396 -0.000248373 0.175253
0.0315133 -0.000500768 0.175791
0.0331298 -0.00245333 0.179791
0.0343075 -0.0031639 0.181263
0.0351605 -0.0030173 0.18099
0.0360974 -0.00308517 0.181153
0.0374745 -0.00420781 0.183465
0.0375062 -0.00212108 0.17924
0.0383613 -0.00201844 0.179055
0.0396965 -0.0029954 0.181071
0.0402561 -0.00223146 0.179538
0.0408723 -0.00162261 0.178321
0.041161 -0.000353821 0.175758
0.0436321 -0.00361342 0.182428
0.0434497 -0.00140996 0.177958
0.0445856 -0.00188966 0.178958
0.0451239 -0.00119765 0.177569
0.0460317 -0.00123137 0.177658
0.0470276 -0.00142717 0.178078
0.0487458 -0.00293159 0.181168
0.0495019 -0.00266028 0.180634
0.0497358 -0.00148182 0.178247
0.0510832 -0.00226555 0.179864
0.0522247 -0.00267289 0.180712
0.0532626 -0.00289344 0.181178
0.0540803 -0.00274577 0.180891
0.0556667 -0.00384136 0.183141
0.0560273 -0.00295787 0.18135
0.0558877 -0.00132218 0.178021
0.0568005 -0.00135326 0.178093
0.0580093 -0.00183054 0.179076
0.0590292 -0.00201157 0.179453
0.0591486 -0.000866428 0.177119
0.0598881 -0.000650547 0.176682
0.0612841 -0.00137476 0.178163
0.0633215 -0.0029775 0.181436
0.0636394 -0.00215611 0.179757
0.0644548 -0.00203563 0.179507
0.0642865 -0.000594877 0.176559
0.0653065 -0.000768848 0.176907
0.0669481 -0.00175096 0.178904
0.0670541 -0.000723392 0.176794
0.0682681 -0.0011339 0.177618
0.0684806 -0.000273392 0.175845
0.0719747 -0.0035084 0.18243
0.070155 -0.000146575 0.175547
0.0727399 -0.00219986 0.179714
0.0717493 7.33435e-05 0.175049
0.0730163 -0.000373982 0.175933
0.0747545 -0.00135933 0.177911
0.0756942 -0.00139946 0.177958
0.0766991 -0.00151176 0.178149
0.0790845 -0.00317433 0.181497
0.0794019 -0.00249608 0.18007
0.079677 -0.00178545 0.178574
0.0812161 -0.00246419 0.179905
0.082898 -0.00327974 0.181511
0.0830269 -0.00242452 0.17971
0.0828472 -0.00126202 0.177282
0.0823189 0.000239171 0.174162
0.0848765 -0.00146526 0.17756
0.0856292 -0.0012946 0.177139
0.0861188 -0.000860818 0.176179
0.086945 -0.000769868 0.175913
0.0873946 -0.00030756 0.174888
0.0874484 0.000533052 0.173092
0.0891318 -0.000215232 0.174515
0.0915961 -0.00169259 0.177408
0.0935855 -0.00268879 0.179319
0 0 0
0 0 0
0 0 0
0 0 0
0 0 0
0 0 0
0 0 0
0 0 0
0 0 0
0 0 0
-0.0930622 0.00353745 0.163913
-0.0914748 0.00415979 0.162817
-0.0897485 0.00492196 0.161434
-0.08908 0.0047383 0.161931
-0.089541 0.00351465 0.1645
-0.0891725 0.00303937 0.165572
-0.0885721 0.00277443 0.166218
-0.087648 0.00281298 0.166253
-0.0874766 0.00213405 0.167719
-0.0855067 0.00318218 0.165721
-0.085132 0.0026957 0.166793
-0.0834332 0.00350795 0.165255
-0.0819839 0.00409032 0.164172
-0.0823852 0.00282148 0.166803
-0.0816632 0.00267169 0.167183
-0.0808093 0.00265615 0.167289
-0.0822787 0.000223875 0.172252
-0.0816926 -9.73865e-05 0.172968
-0.0787217 0.00211278 0.168584
-0.0806138 -0.000856996 0.174624
-0.0792238 -0.000322156 0.173605
-0.0779059 0.000146993 0.172714
-0.0774579 -0.000339694 0.173745
-0.0768615 -0.000669248 0.174457
-0.0763172 -0.00106458 0.175299
-0.0755876 -0.00125457 0.175724
-0.074143 -0.000613958 0.17447
-0.0723571 0.000446238 0.172365
-0.070859 0.00118963 0.170896
-0.0697041 0.00153739 0.170223
-0.0679947 0.00257403 0.168156
-0.0680742 0.00141904 0.170512
-0.0681736 0.000210397 0.172974
-0.0663591 0.00140677 0.170576
-0.0653667 0.00157559 0.170251
-0.0649038 0.00105792 0.171311
-0.0636566 0.00156546 0.170298
-0.0617353 0.00299249 0.167424
-0.0617794 0.00178529 0.169871
-0.060873 0.00185629 0.169734
-0.0609315 0.000579625 0.172318
-0.0599227 0.000782065 0.171911
-0.0577439 0.00267626 0.168084
-0.0569752 0.00256589 0.168306
-0.0567023 0.00171687 0.170018
-0.0555886 0.00210919 0.169221
-0.0559837 0.000205755 0.173062
-0.055338 -0.0001399 0.173753
-0.0541913 0.000294723 0.172866
-0.0534235 0.000136048 0.173177
-0.0531896 -0.000898458 0.175256
-0.0517042 0.000108033 0.17321
-0.0501759 0.0012216 0.170948
-0.0495876 0.000760898 0.171864
-0.0474944 0.00291229 0.167504
-0.0485125 -0.000390023 0.174156
-0.0470184 0.000734694 0.171868
-0.0459301 0.00115326 0.171005
-0.0454937 0.000362806 0.172582
-0.0448615 -8.33049e-05 0.173463
-0.043389 0.00109462 0.171066
-0.043297 -0.000431187 0.174124
-0.0419835 0.000464603 0.172296
-0.0412134 0.000269361 0.172668
-0.0405755 -0.000214666 0.173622
-0.0398237 -0.000473164 0.174121
-0.0390039 -0.000592485 0.174338
-0.0378245 9.75206e-05 0.172924
-0.0367687 0.000533186 0.172022
-0.0359043 0.000534631 0.171995
-0.0347757 0.0011794 0.170672
-0.0338147 0.00143793 0.170128
-0.0339736 -0.00115861 0.175336
-0.0331198 -0.00123107 0.175458
-0.0321526 -0.00100142 0.174971
-0.0310763 -0.000456266 0.173849
-0.0301003 -0.000166476 0.173241
-0.0293542 -0.000536472 0.173963
-0.0283202 -5.61625e-05 0.172972
-0.0273472 0.000263207 0.172306
-0.0267448 -0.000594951 0.174011
-0.0259612 -0.000906058 0.174615
-0.024964 -0.000500701 0.173777
-0.0240221 -0.000264339 0.173279
-0.023312 -0.000873402 0.174483
-0.0223314 -0.000484973 0.173681
-0.0212616 0.000293903 0.172094
-0.0205804 -0.000492446 0.173656
-0.0200993 -0.00222607 0.177123
-0.0188702 -0.000690848 0.174017
-0.0178029 0.000215307 0.172177
-0.0172714 -0.00149622 0.1756
-0.0165129 -0.00218333 0.176964
-0.0155494 -0.00179447 0.176167
-0.0143416 0.000102043 0.17234
-0.0134134 0.000462644 0.171601
-0.0127934 -0.00122542 0.174979
-0.012001 -0.00190374 0.176329
-0.0111639 -0.00233927 0.177192
-0.0100857 -0.000780798 0.174049
-0.00912012 1.58325e-05 0.172439
-0.00824353 5.37857e-05 0.172353
-0.00737669 -1.38134e-05 0.17248
-0.00657067 -0.000903301 0.174259
-0.00565166 -0.000346452 0.173134
-0.00475829 -4.88311e-05 0.17253
-0.00390663 -0.000540607 0.173513
-0.00305699 -0.00137681 0.175188
-0.00217382 -0.00155036 0.175534
-0.00128478 -0.00156548 0.175562
-0.000395055 -0.00150178 0.175433
0.000485664 -7.26581e-05 0.172563
0.00135882 -3.49432e-06 0.172424
0.00226597 -0.00129595 0.175022
0.00310918 -9.4153e-05 0.172611
0.00400906 -0.00064338 0.173717
0.00487852 -0.00045722 0.173348
0.00577912 -0.000795215 0.174032
0.00660515 -7.43791e-05 0.172591
0.00756804 -0.00109488 0.174648
0.0084709 -0.00128493 0.175038
0.00938974 -0.00158846 0.175656
0.0102747 -0.00155166 0.175593
0.0112992 -0.00261445 0.177739
0.012114 -0.00199952 0.176515
0.0128388 -0.000862665 0.174243
0.0137593 -0.00110863 0.174751
0.0148501 -0.00233757 0.177235
0.0155832 -0.00142328 0.175412
0.0162913 -0.000475638 0.173523
0.0171917 -0.000592776 0.173775
0.0184139 -0.00223815 0.177099
0.0194241 -0.00276446 0.178175
0.0202564 -0.00246907 0.1776
0.0212401 -0.00283184 0.178349
0.0220007 -0.00227142 0.177242
0.0227061 -0.00154294 0.175797
0.0235384 -0.00134029 0.17541
0.0243539 -0.00109235 0.174932
0.02534 -0.00145037 0.175674
0.0262055 -0.00138286 0.17556
0.0269529 -0.000939973 0.17469
0.0277278 -0.000611424 0.174052
0.0286769 -0.000829943 0.174514
0.0290504 0.000652261 0.171553
0.0301148 8.09506e-05 0.172726
0.0315412 -0.00146109 0.175855
0.0329222 -0.00279703 0.178569
0.0340732 -0.00345933 0.179928
0.0351416 -0.00387664 0.180793
0.0360692 -0.003923 0.180911
0.0366861 -0.00321283 0.179504
0.0378278 -0.00378049 0.180672
0.0386583 -0.00360177 0.180336
0.0386433 -0.00151968 0.176162
0.0400031 -0.00256983 0.178303
0.0403426 -0.00136823 0.175902
0.0409521 -0.000789545 0.174757
0.0421591 -0.00147278 0.176158
0.0433642 -0.00212416 0.177493
0.0438376 -0.00129462 0.175841
0.0449151 -0.00167537 0.176629
0.0460441 -0.00213953 0.177586
0.0472524 -0.00273497 0.178807
0.0475781 -0.00168406 0.176704
0.0481688 -0.00115024 0.175644
0.0492031 -0.00142234 0.176211
0.0503715 -0.00191831 0.177228
0.0515432 -0.00240267 0.178221
0.0522381 -0.00206774 0.177559
0.0535303 -0.00273231 0.178914
0.0543283 -0.00257017 0.178598
0.0548578 -0.00198326 0.177423
0.0558708 -0.00217643 0.177823
0.0568207 -0.00226539 0.178011
0.0580694 -0.00280744 0.179112
0.0588016 -0.00255593 0.178609
0.0592882 -0.00194787 0.177385
0.0596306 -0.0011469 0.175768
0.0611623 -0.00207869 0.177651
0.0621625 -0.00222979 0.177955
0.063907 -0.00341597 0.180348
0.06379 -0.00200421 0.177491
0.0622428 0.00131173 0.170785
0.065596 -0.00202739 0.177522
0.0666224 -0.00220064 0.17786
0.0673464 -0.00197405 0.177389
0.0676922 -0.00126587 0.175943
0.0682362 -0.000826985 0.175039
0.068959 -0.000622667 0.174606
0.0701925 -0.00105497 0.175457
0.0706435 -0.00051868 0.174349
0.071241 -0.000171691 0.173621
0.0738894 -0.00227837 0.177841
0.0751579 -0.0027071 0.178672
0.0746958 -0.00110947 0.175412
0.0753734 -0.000859678 0.174869
0.0768532 -0.00152665 0.176171
0.0776066 -0.00136053 0.17579
0.0782117 -0.00103217 0.175079
0.0796313 -0.00160448 0.17618
0.0799116 -0.000925295 0.174755
0.0810324 -0.00116238 0.175173
0.0820245 -0.00125609 0.175298
0.082396 -0.000694223 0.1741
0.0828315 -0.000209384 0.173054
0.0838207 -0.000302494 0.173166
0.0856371 -0.00123317 0.174957
0.0867734 -0.00145811 0.175324
0.0887382 -0.00250136 0.177328
0.0870527 7.58246e-05 0.172064
0.0886709 -0.000619985 0.173362
0.0901609 -0.00117581 0.174373
0.0917088 -0.00177366 0.175462
0 0 0
0 0 0
0 0 0
0 0 0
0 0 0
0 0 0
0 0 0
0 0 0
0 0 0
0 0 0
-0.0908191 0.00473597 0.159689
-0.0915679 0.0032765 0.162709
-0.090665 0.00329521 0.162813
-0.0896392 0.00342976 0.162682
-0.0888621 0.00333841 0.162992
-0.0897742 0.00166342 0.166426
-0.0879053 0.00259139 0.164711
-0.0880348 0.00162827 0.166732
-0.085881 0.00285452 0.164413
-0.0863656 0.00153191 0.167138
-0.0856114 0.00140601 0.167488
-0.0840186 0.00211532 0.166176
-0.081876 0.0033951 0.163725
-0.0813052 0.003104 0.164388
-0.0800789 0.00348278 0.163715
-0.0790372 0.00367945 0.1634
-0.0787886 0.00304858 0.164727
-0.0801437 0.000701353 0.169467
-0.0808587 -0.00100853 0.172937
-0.0801455 -0.00120358 0.17339
-0.0791036 -0.00104056 0.173125
-0.0774872 -0.000233948 0.171574
-0.0767597 -0.000406459 0.171971
-0.0769406 -0.00161429 0.174429
-0.0765068 -0.00214205 0.175528
-0.0775222 -0.00436776 0.180013
-0.0745108 -0.00190286 0.175135
-0.0723248 -0.000360936 0.172095
-0.0705615 0.000709936 0.169991
-0.068004 0.00277873 0.16589
-0.0678399 0.00193983 0.167593
-0.06819 0.000436313 0.170621
-0.0668272 0.00106855 0.169381
-0.0654529 0.00173292 0.168074
-0.0648506 0.00141035 0.168737
-0.0644754 0.000780188 0.170012
-0.0633132 0.00118644 0.169213
-0.0621674 0.00158236 0.168434
-0.0609956 0.00202559 0.167557
-0.061874 -0.000375398 0.172364
-0.0606953 6.37174e-05 0.171492
-0.0599007 -3.46228e-05 0.171692
-0.0573556 0.00241145 0.166804
-0.0574177 0.00108137 0.169464
-0.056392 0.00134181 0.168942
-0.0556436 0.00118892 0.169245
-0.0548743 0.00106385 0.16949
-0.0538883 0.00127551 0.169062
-0.0531909 0.00103413 0.169537
-0.0526469 0.000536613 0.170523
-0.0519444 0.000284061 0.171018
-0.0507504 0.000846662 0.169883
-0.0498711 0.000892565 0.16978
-0.0498574 -0.000560157 0.172669
-0.0493792 -0.00124455 0.174023
-0.0471347 0.00121827 0.169087
-0.0462775 0.0012346 0.169039
-0.0454415 0.00121234 0.169067
-0.0444677 0.00145078 0.168574
-0.0432101 0.0022478 0.166964
-0.0424247 0.00214456 0.167152
-0.042795 -0.000289313 0.171992
-0.0419971 -0.000423357 0.17224
-0.0409839 -0.000111468 0.171597
-0.0398066 0.000565127 0.170225
-0.039181 6.35833e-05 0.171205
-0.0383515 -4.12017e-06 0.171319
-0.0371531 0.000769608 0.169753
-0.0361476 0.0011274 0.169017
-0.0356261 0.000340544 0.170564
-0.0345231 0.000944853 0.169337
-0.0341085 -0.000156544 0.17151
-0.0336578 -0.00122177 0.173611
-0.0327671 -0.00117556 0.173496
-0.0314758 -3.39448e-05 0.171197
-0.0305355 0.00018701 0.170734
-0.0299329 -0.000554591 0.172189
-0.0290343 -0.000460684 0.17198
-0.027806 0.000648752 0.169747
-0.0269703 0.000586905 0.169848
-0.0266648 -0.0012107 0.173407
-0.0259956 -0.00190273 0.174763
-0.0248928 -0.00112831 0.173199
-0.0238817 -0.000630468 0.172187
-0.023129 -0.00106664 0.173035
-0.0222544 -0.00106148 0.173004
-0.0208764 0.000989787 0.168902
-0.0212174 -0.00407034 0.178953
-0.0199595 -0.00250287 0.175815
-0.018651 -0.000555761 0.171923
-0.0179275 -0.00126185 0.17331
-0.0171346 -0.00168654 0.174138
-0.016422 -0.00259017 0.175919
-0.0148362 0.00137403 0.168019
-0.0138552 0.00216603 0.16643
-0.013272 0.000501543 0.169726
-0.0126881 -0.00138884 0.173472
-0.0117924 -0.0012578 0.173198
-0.0108323 -0.000592634 0.171864
-0.0101028 -0.00181292 0.174279
-0.0091565 -0.00120589 0.173062
-0.00824018 -0.000786692 0.17222
-0.00733998 -0.00045871 0.17156
-0.00650452 -0.000906907 0.172443
-0.00566099 -0.00137079 0.173358
-0.00475911 -0.000941865 0.1725
-0.00388484 -0.000937589 0.172487
-0.00301731 -0.00112614 0.172858
-0.00212358 -0.000405915 0.171423
-0.00125386 -0.000340372 0.171291
-0.000382045 0.000484355 0.169651
0.000482622 -0.000381321 0.171371
0.00135701 -0.000754647 0.172114
0.00223058 -0.000803985 0.172213
0.00313425 -0.00166679 0.173931
0.00397661 -0.0008149 0.172241
0.00487615 -0.0012923 0.173194
0.00572624 -0.000875428 0.172371
0.00655636 -0.000307083 0.171247
0.00744316 -0.000529997 0.171697
0.00839474 -0.00138008 0.173395
0.00920362 -0.000727169 0.172106
0.0102227 -0.00199445 0.174635
0.0112033 -0.00275576 0.176159
0.0119662 -0.00181094 0.174292
0.0127899 -0.00141108 0.173509
0.0137066 -0.0016568 0.17401
0.0143658 -0.000328958 0.171383
0.0155288 -0.00200304 0.174727
0.0163461 -0.00164679 0.174033
0.0162901 0.00310839 0.164591
0.0181772 -0.00198966 0.174748
0.0192394 -0.00281395 0.176405
0.0203452 -0.00375756 0.1783
0.0211883 -0.0035138 0.177834
0.0219633 -0.003015 0.17686
0.0227117 -0.00245214 0.17576
0.0234967 -0.00206894 0.175017
0.0243331 -0.00189959 0.1747
0.024665 1.35824e-05 0.170912
0.0260339 -0.00169028 0.174325
0.0268989 -0.00164403 0.174255
0.0274866 -0.000727728 0.172451
0.028019 0.000300832 0.170424
0.0290993 -0.000355296 0.171753
0.0300943 -0.000728399 0.172518
0.0309082 -0.000574604 0.172234
0.0319785 -0.00112687 0.173357
0.0334419 -0.0026909 0.176497
0.0344823 -0.00308306 0.177302
0.0334772 0.00168692 0.167815
0.0351856 -0.000432573 0.172063
0.0375303 -0.00397332 0.179147
0.0374667 -0.00171924 0.174674
0.0380081 -0.000950322 0.173162
0.0389211 -0.00104547 0.173373
0.0396096 -0.000646442 0.172598
0.0408212 -0.00138254 0.174088
0.04228 -0.00260497 0.176549
0.0434284 -0.00314124 0.17764
0.0435008 -0.00149521 0.174374
0.0449248 -0.00257469 0.176548
0.0459895 -0.00291882 0.177254
0.0466095 -0.00240759 0.176251
0.0472186 -0.00189503 0.175245
0.0478546 -0.00145034 0.174373
0.0489855 -0.00190812 0.175303
0.0499417 -0.00204211 0.175585
0.0507297 -0.00188041 0.175275
0.0513129 -0.00137569 0.17428
0.051687 -0.000538372 0.172618
0.0529131 -0.00112884 0.173808
0.0537384 -0.00105168 0.173663
0.0546156 -0.00105932 0.173686
0.0562293 -0.00221983 0.176011
0.0575042 -0.00282159 0.177219
0.0584894 -0.00296471 0.177509
0.0590103 -0.00240849 0.176399
0.0593821 -0.00164855 0.174881
0.0600569 -0.00135026 0.174283
0.0612831 -0.00184909 0.175277
0.0623074 -0.00204844 0.175671
0.0615729 0.000205114 0.171161
0.0639232 -0.00183474 0.175228
0.0652788 -0.00247239 0.176492
0.0661908 -0.00249987 0.176534
0.0669594 -0.00233697 0.176193
0.0675046 -0.00188729 0.175277
0.068281 -0.00174487 0.174973
0.0692198 -0.00181102 0.175083
0.0700322 -0.00171642 0.17487
0.0709044 -0.00169702 0.174804
0.0720139 -0.00196654 0.175312
0.0759844 -0.00567482 0.18268
0.0745663 -0.00287958 0.177065
0.0742325 -0.00142504 0.174124
0.0741137 -0.000253558 0.171746
0.0756586 -0.0010186 0.173228
0.076462 -0.000923149 0.17299
0.0768333 -0.000343718 0.171784
0.0778212 -0.000459962 0.171962
0.0786552 -0.000403576 0.171792
0.079915 -0.000808679 0.172537
0.0812916 -0.00132855 0.173506
0.0818352 -0.000951968 0.172687
0.0820589 -0.000246242 0.171211
0.0850656 -0.00244265 0.175499
0.0858981 -0.0023579 0.175248
0.0856885 -0.00121424 0.17289
0.086271 -0.000889063 0.172153
0.0870619 -0.000776127 0.171834
0.0874592 -0.000275895 0.170742
0.0905028 -0.00236329 0.174774
0.0900614 -0.00104383 0.172049
0 0 0
0 0 0
0 0 0
0 0 0
0 0 0
0 0 0
0 0 0
0 0 0
0 0 0
0 0 0
-0.090353 0.00437135 0.158593
-0.0909535 0.00303655 0.161341
-0.0920534 0.00121911 0.165028
-0.0908495 0.00150753 0.164606
-0.0920063 -0.00040938 0.168484
-0.0874307 0.00306616 0.161822
-0.088984 0.000751913 0.16647
-0.0843923 0.00432961 0.159585
-0.0851877 0.00272517 0.162836
-0.0857941 0.00127615 0.165782
-0.0845582 0.00163421 0.165183
-0.0840236 0.001296 0.165944
-0.0835521 0.000888385 0.166837
-0.079851 0.00379312 0.161219
-0.0784716 0.00435021 0.160206
-0.0782852 0.00366846 0.161624
-0.0789298 0.0020917 0.1648
-0.0785874 0.00154077 0.165955
-0.0788885 0.000281304 0.168503
-0.0789154 -0.00070399 0.170509
-0.0778409 -0.000488348 0.170146
-0.0759064 0.000698432 0.167864
-0.0759319 -0.000310235 0.169907
-0.0764771 -0.00193746 0.173168
-0.0754962 -0.00182918 0.173003
-0.0730704 -1.90064e-05 0.169476
-0.0724425 -0.000302389 0.170077
-0.0714323 -0.000131212 0.169777
-0.0696625 0.000970773 0.167636
-0.0679607 0.00201735 0.165601
-0.066603 0.00266137 0.164358
-0.0667717 0.00139184 0.166893
-0.0648837 0.00272582 0.164281
-0.06451 0.0021299 0.165481
-0.0641738 0.00147001 0.166805
-0.0635623 0.00116009 0.167435
-0.0627306 0.00113998 0.16749
-0.0619898 0.000995643 0.167788
-0.0612844 0.000798866 0.168188
-0.0607339 0.000379317 0.169027
-0.0594732 0.000962235 0.167881
-0.0577768 0.00219349 0.165452
-0.0570468 0.00204149 0.165756
-0.0574263 0.000231199 0.169338
-0.0567077 2.88859e-05 0.169738
-0.0556245 0.000381261 0.16904
-0.0542883 0.00113963 0.167538
-0.053245 0.00145822 0.166904
-0.0527376 0.000924379 0.167954
-0.0522567 0.00033012 0.169122
-0.0511393 0.000775367 0.168233
-0.0501422 0.00103261 0.167715
-0.0494773 0.00072711 0.168309
-0.0487141 0.000583418 0.168582
-0.0478062 0.000692785 0.168353
-0.0476943 -0.00063739 0.170969
-0.0464878 5.28246e-06 0.169684
-0.0449781 0.00124233 0.167224
-0.0439238 0.00165373 0.166395
-0.0427488 0.00231706 0.165068
-0.0424973 0.00116617 0.167325
-0.0426237 -0.000799254 0.17119
-0.0415516 -0.000358954 0.170301
-0.0402047 0.000681929 0.168226
-0.0390547 0.00134143 0.166904
-0.0384863 0.000743553 0.168065
-0.0378425 0.000289388 0.168941
-0.0367887 0.000762492 0.167986
-0.0356553 0.00144609 0.166616
-0.0350102 0.000978775 0.167517
-0.0343379 0.000555672 0.168331
-0.0339731 -0.000672124 0.170732
-0.0331708 -0.000820816 0.171004
-0.0321781 -0.000466995 0.170284
-0.0308737 0.000765093 0.167832
-0.0304013 -0.000291161 0.169893
-0.0296498 -0.000595577 0.170472
-0.0287989 -0.000619784 0.170498
-0.027206 0.00165077 0.166
-0.0270277 -0.00045234 0.170125
-0.0268709 -0.00276459 0.174661
-0.0260672 -0.00302804 0.175159
-0.0249759 -0.00229576 0.173695
-0.0237176 -0.00089962 0.170924
-0.0228687 -0.000952512 0.171008
-0.0225368 -0.00304973 0.17512
-0.021719 -0.00332376 0.17564
-0.0202951 -0.00102675 0.171098
-0.0191898 4.92185e-05 0.168961
-0.0186348 -0.0013499 0.171699
-0.0180372 -0.0026776 0.174296
-0.0170154 -0.00195322 0.172853
-0.0159457 -0.000890307 0.170746
-0.0150003 -0.000421643 0.169808
-0.0139309 0.000860654 0.167271
-0.0131985 0.000118501 0.168718
-0.0126711 -0.00215038 0.17317
-0.0118461 -0.002537 0.173918
-0.0107506 -0.00080587 0.170501
-0.00989307 -0.000859268 0.170595
-0.00910955 -0.00163401 0.17211
-0.00819672 -0.00120017 0.171247
-0.00732016 -0.00109537 0.171033
-0.00634922 0.000308655 0.168264
-0.00561139 -0.00148082 0.171778
-0.00473833 -0.0014371 0.171686
-0.00378796 0.00037019 0.168127
-0.00294243 0.000172801 0.168512
-0.00209482 -0.0001017 0.169049
-0.00122781 0.000589229 0.167688
-0.000388545 -0.00187492 0.172533
0.000486824 -0.0019851 0.172749
0.00134991 -0.00116201 0.171131
0.00222819 -0.00157943 0.171953
0.00309974 -0.00157239 0.171942
0.00399501 -0.00209147 0.172966
0.00484307 -0.00157165 0.171948
0.00568289 -0.00108496 0.170996
0.00652064 -0.000700146 0.170245
0.00736235 -0.00045228 0.169764
0.00826078 -0.00085213 0.170558
0.00924553 -0.00199704 0.172819
0.00989555 -3.89293e-05 0.168976
0.0107612 -0.000115693 0.169137
0.0119215 -0.00236239 0.173568
0.0127801 -0.00222163 0.173303
0.0135207 -0.00133874 0.171578
0.0138302 0.00204955 0.164923
0.0147036 0.00182916 0.16537
0.0162318 -0.00190923 0.172742
0.0171267 -0.00201626 0.172968
0.0176028 -6.89551e-05 0.16915
0.0188834 -0.00204809 0.173063
0.0200122 -0.00317687 0.175303
0.0208695 -0.00305364 0.175078
0.021472 -0.00189979 0.172824
0.0225754 -0.00280389 0.174623
0.0234605 -0.00281489 0.174664
0.0250375 -0.00534638 0.179671
0.0251254 -0.00246626 0.174017
0.0257919 -0.00174653 0.172619
0.0267874 -0.00215541 0.173445
0.0275603 -0.00183051 0.172826
0.0280988 -0.000802703 0.170821
0.0287528 -0.000182204 0.169619
0.0300391 -0.00143521 0.17211
0.0308715 -0.0013362 0.171936
0.0318229 -0.00157004 0.172419
0.0327711 -0.00178286 0.17286
0.03399 -0.0026904 0.174672
0.0352129 -0.00356237 0.176414
0.0350612 -0.000986837 0.171354
0.0358768 -0.000873655 0.171152
0.036626 -0.000609219 0.170651
0.0373837 -0.000376523 0.170213
0.0383865 -0.00070712 0.170885
0.0395842 -0.00145321 0.172378
0.0410777 -0.0028059 0.175069
0.0422251 -0.0033706 0.176204
0.0423477 -0.00179098 0.173104
0.0440049 -0.00338721 0.176275
0.0447339 -0.00307516 0.175677
0.0455353 -0.00291631 0.17538
0.0462509 -0.00259926 0.174771
0.046788 -0.00195912 0.173522
0.0476161 -0.00187828 0.173377
0.048825 -0.00248914 0.174598
0.0496152 -0.00233417 0.174305
0.0504743 -0.0023046 0.174259
0.0508095 -0.00137637 0.172435
0.0516892 -0.00139827 0.172488
0.0528827 -0.00193994 0.173568
0.0535005 -0.00152354 0.172752
0.052824 0.000960015 0.167848
0.0529426 0.00210805 0.165583
0.0565211 -0.00216727 0.17404
0.0578834 -0.00291305 0.175516
0.0581092 -0.00191913 0.173552
0.0592462 -0.00231025 0.174324
0.0600441 -0.00219204 0.174087
0.0610992 -0.00244832 0.174589
0.0613377 -0.0015334 0.172774
0.0616723 -0.000778295 0.171273
0.0623198 -0.000477113 0.170667
0.0645668 -0.00236891 0.174395
0.0655746 -0.00253846 0.174715
0.0663855 -0.00244086 0.174505
0.0676551 -0.00294718 0.175487
0.0684053 -0.00276647 0.175108
0.0697556 -0.00335702 0.17625
0.0705831 -0.00327141 0.176055
0.0705356 -0.00209603 0.173704
0.0688944 0.00101401 0.167531
0.0690897 0.00181501 0.165916
0.0743413 -0.00347833 0.176328
0.0737242 -0.00167603 0.17273
0.074283 -0.0012947 0.171935
0.0749192 -0.00101088 0.171328
0.075945 -0.00117888 0.17161
0.0768996 -0.001261 0.171719
0.0783881 -0.00193796 0.172997
0.0784663 -0.00103634 0.17116
0.0794265 -0.00111928 0.17126
0.0803074 -0.00111298 0.17118
0.0804228 -0.000285268 0.16948
0.0820073 -0.00103045 0.170871
0.0845554 -0.00276787 0.174206
0.0845577 -0.00182664 0.172272
0.084313 -0.000650041 0.169872
0.0846223 -5.87627e-05 0.168619
0.0854414 9.99123e-06 0.168388
0.0881745 -0.00182401 0.171882
0.0893057 -0.00204185 0.172201
0.0911697 -0.00296712 0.173899
0 0 0
0 0 0
0 0 0
0 0 0
0 0 0
0 0 0
0 0 0
0 0 0
0 0 0
0 0 0
-0.0891659 0.00467213 0.156233
-0.0898256 0.00328026 0.159063
-0.0894069 0.00286475 0.160009
-0.0893362 0.00211739 0.161592
-0.0911913 -0.000465229 0.166715
-0.0916755 -0.00178625 0.169402
-0.0841549 0.00459789 0.157183
-0.0835824 0.00433655 0.157804
-0.0850131 0.0020984 0.16225
-0.0850378 0.00121588 0.164069
-0.0828994 0.00249238 0.161698
-0.0819389 0.00260062 0.161586
-0.0837126 -9.42945e-05 0.166914
-0.0825175 0.000236027 0.166364
-0.0780205 0.00403792 0.15906
-0.0786034 0.00253892 0.162055
-0.0785647 0.00167495 0.163813
-0.0781537 0.00119702 0.164816
-0.0765687 0.00199587 0.16333
-0.0779309 -0.000449754 0.168161
-0.077356 -0.000779748 0.168868
-0.0739094 0.00213716 0.16324
-0.074106 0.000948392 0.165614
-0.0735486 0.000607289 0.166332
-0.0713993 0.00212619 0.163416
-0.0708209 0.00181848 0.164062
-0.070939 0.000668086 0.166351
-0.0702147 0.000514872 0.16669
-0.0688878 0.00110041 0.165583
-0.066819 0.00262564 0.162636
-0.0673299 0.00093662 0.165968
-0.0657981 0.00181475 0.16428
-0.0637078 0.00343895 0.161131
-0.0628653 0.00347107 0.161091
-0.063559 0.00146518 0.165034
-0.062861 0.00127907 0.165417
-0.0620995 0.00117534 0.165637
-0.0618279 0.000392325 0.167183
-0.0615537 -0.000407882 0.168762
-0.0609282 -0.000730731 0.169404
-0.059434 0.000190102 0.167611
-0.0569995 0.00251303 0.163073
-0.059874 -0.00297175 0.173811
-0.0570905 -0.000100099 0.168195
-0.0560678 0.000167526 0.167673
-0.0550023 0.000510268 0.167003
-0.0541487 0.000530384 0.166962
-0.0527374 0.00144413 0.165172
-0.0525914 0.000329748 0.167348
-0.0523576 -0.000675134 0.169309
-0.0508861 0.000366203 0.167265
-0.0496252 0.00108325 0.165854
-0.0486166 0.00138683 0.165251
-0.0478105 0.00134308 0.165327
-0.0475986 0.00022915 0.167494
-0.0478068 -0.00169397 0.171244
-0.0464856 -0.000835158 0.169551
-0.0450928 0.000191733 0.167529
-0.0438576 0.000952825 0.166026
-0.0432597 0.000485897 0.166923
-0.0435532 -0.00179354 0.171364
-0.0423517 -0.00109538 0.169982
-0.0414223 -0.000938557 0.169657
-0.0397691 0.000773177 0.166294
-0.0387885 0.00108876 0.165659
-0.0380927 0.000781998 0.16624
-0.0374365 0.000370957 0.167024
-0.0363727 0.000892989 0.165984
-0.0353243 0.00140264 0.164969
-0.0348476 0.000536941 0.16664
-0.0344592 -0.000593022 0.168827
-0.0335788 -0.000514999 0.168654
-0.0325335 2.22027e-06 0.167623
-0.0316628 7.36564e-05 0.167463
-0.0305646 0.000781931 0.16606
-0.0294565 0.00155812 0.164524
-0.0293663 -0.000618555 0.168752
-0.0277447 0.00171898 0.16417
-0.0275843 -0.000367984 0.168222
-0.0272372 -0.0019851 0.171356
-0.0265783 -0.00267056 0.172673
-0.0258832 -0.0032781 0.173837
-0.0247758 -0.00245898 0.17222
-0.023104 0.000504479 0.166422
-0.0223966 -6.52671e-06 0.167399
-0.0219701 -0.00167692 0.170637
-0.0215543 -0.00352861 0.174228
-0.0203473 -0.0021175 0.17146
-0.0189709 0.000183135 0.166959
-0.0185949 -0.00203047 0.171256
-0.0175046 -0.000920132 0.169076
-0.0160524 0.00219031 0.163001
-0.015735 -0.000598095 0.168418
-0.0149125 -0.000772156 0.168743
-0.0139813 -0.000297904 0.167806
-0.0129822 0.000681765 0.165885
-0.0124541 -0.00150716 0.170136
-0.011779 -0.00291396 0.172864
-0.0108606 -0.00256738 0.172178
-0.00991161 -0.00188971 0.170848
-0.00901932 -0.00163312 0.170339
-0.0081119 -0.00116055 0.16941
-0.00710363 0.000633001 0.165911
-0.00641848 -0.0014896 0.170036
-0.00557511 -0.00178445 0.170604
-0.0046434 -0.000544652 0.168185
-0.00382015 -0.0012201 0.169495
-0.00299876 -0.00234322 0.171678
-0.00211609 -0.00184695 0.170709
-0.00123141 -0.000523999 0.168132
-0.000383004 -0.00151844 0.170067
0.000479648 -0.00152949 0.170088
0.00134755 -0.00186791 0.170747
0.00221701 -0.0020036 0.171013
0.00309949 -0.00243428 0.171854
0.00397498 -0.00252103 0.172026
0.00482133 -0.00204562 0.171104
0.00568977 -0.0020571 0.171131
0.00651932 -0.00154464 0.17014
0.00738447 -0.00157394 0.170203
0.00813397 -0.000371709 0.16787
0.00885304 0.00089433 0.165413
0.00970287 0.000794411 0.165616
0.010617 0.000191219 0.1668
0.0116707 -0.00136682 0.169844
0.012927 -0.00412174 0.17522
0.0134492 -0.0017413 0.170597
0.0142129 -0.00112708 0.169413
0.0150644 -0.00109037 0.169355
0.0160745 -0.00192367 0.170992
0.0174093 -0.00435542 0.175744
0.0175086 -0.000459708 0.168169
0.0184133 -0.000712723 0.168678
0.01932 -0.000952505 0.169161
0.0199796 -0.00010933 0.167535
0.0215326 -0.00302239 0.173229
0.0220324 -0.00153125 0.170341
0.0226816 -0.000723183 0.168784
0.023897 -0.00205665 0.171402
0.0248122 -0.0022319 0.171763
0.0256546 -0.00214545 0.171613
0.0265239 -0.00215461 0.171651
0.0274127 -0.00222616 0.17181
0.0278308 -0.000827692 0.169102
0.0288005 -0.00117975 0.169809
0.029556 -0.000882976 0.16925
0.0305648 -0.00132544 0.170134
0.0314229 -0.0013262 0.170156
0.0317922 -7.06315e-06 0.167602
0.0335474 -0.00240251 0.172298
0.0349955 -0.00388963 0.175222
0.0358546 -0.00383034 0.175127
0.0358871 -0.00175619 0.171097
0.0363344 -0.000768624 0.169188
0.0370089 -0.00035537 0.168401
0.0381715 -0.00107247 0.169821
0.0398794 -0.00297266 0.173552
0.04111 -0.00375126 0.175092
0.0411261 -0.00190537 0.171504
0.0414645 -0.000809044 0.169379
0.0424164 -0.00101351 0.169795
0.0444748 -0.00343108 0.174537
0.04544 -0.00360283 0.174889
0.0455224 -0.00206278 0.171894
0.0465652 -0.0024005 0.172569
0.0472859 -0.0021264 0.172046
0.0477661 -0.00142249 0.170682
0.0493854 -0.00278793 0.173364
0.0501845 -0.00265913 0.173123
0.0507786 -0.00217888 0.172194
0.0519265 -0.00265862 0.173141
0.0530765 -0.00312566 0.174062
0.0513789 0.00111917 0.165764
0.0525861 0.000514634 0.166951
0.0530525 0.00111265 0.165785
